ncols         160
nrows         78
xllcorner     383056
yllcorner     7542944
cellsize      16
NODATA_value  -9999
-9999 -9999 -9999 -9999 -9999 -9999 -9999 -9999 -9999 -9999 -9999 -9999 -9999 -9999 -9999 -9999 -9999 288.8446 288.3923 287.8131 287.3234 286.8181 286.3564 285.9745 285.602 285.3573 285.1624 285.0293 284.9415 284.8804 284.8725 284.9303 285.0907 285.2836 285.502 285.6824 285.885 286.0593 286.155 286.0868 285.7766 285.3885 284.8206 283.4607 281.7977 280.6387 279.5269 278.8492 278.7192 279.0133 279.5089 280.1981 280.9843 281.6705 282.1653 282.4419 282.9911 284.2424 285.9242 288.1 289.9944 292.007 294.0649 296.109 298.6847 300.8741 303.0945 305.0361 306.5674 308.1778 309.5479 311.1186 312.7911 314.3432 316.081 317.4729 318.9182 320.3438 321.6835 323.2967 324.7567 326.4863 328.3029 329.9211 331.6248 332.8908 334.0713 335.0142 335.7224 336.4985 337.2773 338.24 339.2571 340.148 341.0401 341.6907 342.2955 342.8208 343.2721 343.7646 344.1374 344.4612 344.6434 344.6372 344.375 344.0738 -9999 -9999 -9999 -9999 -9999 -9999 -9999 -9999 -9999 -9999 -9999 -9999 -9999 -9999 -9999 -9999 -9999 -9999 -9999 -9999 -9999 -9999 -9999 -9999 -9999 -9999 -9999 -9999 -9999 -9999 -9999 -9999 -9999 -9999 -9999 -9999 -9999 -9999 -9999 -9999 -9999 -9999 -9999 -9999 -9999 -9999 -9999 -9999 -9999 -9999 -9999 -9999 -9999 -9999
-9999 -9999 -9999 -9999 -9999 -9999 -9999 -9999 -9999 -9999 -9999 -9999 -9999 -9999 -9999 -9999 -9999 289.3689 288.7977 288.0836 287.4996 286.9202 286.4177 286.0225 285.6581 285.4344 285.2684 285.1574 285.0753 284.9992 284.9592 284.9696 285.0787 285.2243 285.3766 285.5006 285.6703 285.8401 285.9369 285.8869 285.6618 285.3731 284.966 284.0472 282.5841 281.2787 280.0147 279.1358 278.7711 278.9067 279.3061 279.9318 280.6909 281.3934 282.0387 282.4277 282.9411 283.9933 285.6698 288.0552 290.1283 292.2837 294.4679 296.6184 299.2685 301.4817 303.7003 305.6103 307.0925 308.6674 310.0369 311.6111 313.2667 314.7984 316.5335 317.9523 319.4396 320.9133 322.2856 323.9149 325.3856 327.1336 328.9626 330.5762 332.289 333.6018 334.8713 335.9245 336.7698 337.7177 338.5641 339.4827 340.3493 341.09 341.8401 342.401 342.9486 343.4498 343.8853 344.3511 344.6966 344.9901 345.1478 -9999 -9999 -9999 -9999 -9999 -9999 -9999 -9999 -9999 -9999 -9999 -9999 -9999 -9999 -9999 -9999 -9999 -9999 -9999 -9999 -9999 -9999 -9999 -9999 -9999 -9999 -9999 -9999 -9999 -9999 -9999 -9999 -9999 -9999 -9999 -9999 -9999 -9999 -9999 -9999 -9999 -9999 -9999 -9999 -9999 -9999 -9999 -9999 -9999 -9999 -9999 -9999 -9999 -9999 -9999 -9999 -9999
-9999 -9999 -9999 -9999 -9999 -9999 -9999 -9999 -9999 -9999 -9999 -9999 -9999 -9999 -9999 -9999 -9999 289.8138 289.1478 288.3059 287.6115 286.9308 286.3678 285.9571 285.6203 285.4437 285.3328 285.2648 285.2031 285.1361 285.0924 285.0853 285.135 285.208 285.2956 285.3658 285.4664 285.5863 285.662 285.6335 285.5135 285.365 285.1174 284.4706 283.2228 281.9897 280.6946 279.6665 279.1159 279.0277 279.1861 279.6353 280.3314 281.0688 281.9071 282.4769 282.9989 283.9562 285.5831 288.0895 290.3554 292.7331 295.0982 297.3483 299.9995 302.1685 304.3117 306.1536 307.6333 309.2087 310.5831 312.1696 313.8167 315.3411 317.086 318.5313 320.0446 321.5324 322.9181 324.599 326.149 327.9391 329.7513 331.3181 332.9957 334.3248 335.6588 336.8598 337.8838 339.002 339.8885 340.7334 341.4418 342.0449 342.6924 343.1954 343.6989 344.1641 344.556 344.9526 345.2307 345.4363 345.4809 -9999 -9999 -9999 -9999 -9999 -9999 -9999 -9999 -9999 -9999 -9999 -9999 -9999 -9999 -9999 -9999 -9999 -9999 -9999 -9999 -9999 -9999 -9999 -9999 -9999 -9999 -9999 -9999 -9999 -9999 -9999 -9999 -9999 -9999 -9999 -9999 -9999 -9999 -9999 -9999 -9999 -9999 -9999 -9999 -9999 -9999 -9999 -9999 -9999 -9999 -9999 -9999 -9999 -9999 -9999 -9999 -9999
-9999 -9999 -9999 -9999 -9999 -9999 -9999 -9999 -9999 -9999 -9999 -9999 -9999 -9999 -9999 -9999 -9999 290.0154 289.3234 288.4098 287.6304 286.8553 286.2285 285.806 285.5144 285.3976 285.3414 285.3121 285.2793 285.2329 285.2026 285.1914 285.2102 285.2394 285.2812 285.3147 285.3616 285.4222 285.4651 285.4509 285.3909 285.3287 285.1711 284.6774 283.6227 282.5111 281.2907 280.2401 279.5439 279.1344 279.0995 279.4132 280.0381 280.7803 281.7367 282.4713 283.1086 284.0087 285.5629 288.1732 290.6176 293.2095 295.7376 298.0311 300.6414 302.758 304.8336 306.6114 308.0699 309.6451 311.0299 312.6316 314.2858 315.8153 317.5705 319.0275 320.5498 322.0216 323.3988 325.1151 326.733 328.5623 330.3499 331.875 333.5171 334.8506 336.2364 337.5472 338.6887 339.8947 340.7682 341.5567 342.213 342.7666 343.3688 343.8478 344.3234 344.7443 345.0777 345.3887 345.5841 345.6897 -9999 -9999 -9999 -9999 -9999 -9999 -9999 -9999 -9999 -9999 -9999 -9999 -9999 -9999 -9999 -9999 -9999 -9999 -9999 -9999 -9999 -9999 -9999 -9999 -9999 -9999 -9999 -9999 -9999 -9999 -9999 -9999 -9999 -9999 -9999 -9999 -9999 -9999 -9999 -9999 -9999 -9999 -9999 -9999 -9999 -9999 -9999 -9999 -9999 -9999 -9999 -9999 -9999 -9999 -9999 -9999 -9999 -9999
-9999 -9999 -9999 -9999 -9999 -9999 -9999 -9999 -9999 -9999 -9999 -9999 -9999 -9999 -9999 -9999 -9999 290.0991 289.4072 288.4463 287.5917 286.7183 286.0135 285.5759 285.3636 285.3319 285.3333 285.3339 285.3233 285.2998 285.2849 285.277 285.2805 285.2871 285.2946 285.2964 285.3022 285.3196 285.3253 285.3116 285.3047 285.3288 285.2758 284.8859 283.9639 283.0081 281.9207 280.8764 280.027 279.2956 279.072 279.2425 279.7659 280.4877 281.5131 282.3901 283.196 284.0952 285.5959 288.281 290.9349 293.7982 296.4521 298.7266 301.2739 303.3717 305.4097 307.1081 308.5194 310.0939 311.4942 313.1082 314.7789 316.32 318.0811 319.5304 321.039 322.5044 323.8838 325.6301 327.3038 329.152 330.8922 332.3725 333.9864 335.3356 336.7855 338.1902 339.4051 340.6379 341.4942 342.2605 342.9113 343.4599 344.0525 344.5191 344.964 345.3241 345.5856 345.8011 345.9037 345.9085 -9999 -9999 -9999 -9999 -9999 -9999 -9999 -9999 -9999 -9999 -9999 -9999 -9999 -9999 -9999 -9999 -9999 -9999 -9999 -9999 -9999 -9999 -9999 -9999 -9999 -9999 -9999 -9999 -9999 -9999 -9999 -9999 -9999 -9999 -9999 -9999 -9999 -9999 -9999 -9999 -9999 -9999 -9999 -9999 -9999 -9999 -9999 -9999 -9999 -9999 -9999 -9999 -9999 -9999 -9999 -9999 -9999 -9999
-9999 -9999 -9999 -9999 -9999 -9999 -9999 -9999 -9999 -9999 -9999 -9999 -9999 -9999 -9999 -9999 290.6354 290.0969 289.4033 288.4102 287.5072 286.5703 285.8022 285.3513 285.2368 285.2857 285.3238 285.334 285.3273 285.312 285.3014 285.3052 285.3156 285.3198 285.3165 285.3122 285.3061 285.2977 285.2705 285.2385 285.264 285.3404 285.3372 285.0139 284.2046 283.4009 282.4801 281.5071 280.5925 279.6691 279.2358 279.188 279.589 280.2619 281.2989 282.2623 283.2386 284.173 285.6115 288.4412 291.3467 294.4517 297.0904 299.2674 301.7762 303.894 305.9132 307.5602 308.9229 310.4825 311.914 313.5577 315.2459 316.7921 318.5471 319.9848 321.4756 322.9469 324.3547 326.1555 327.8413 329.6704 331.3435 332.769 334.3657 335.7443 337.2614 338.729 339.9716 341.188 342.0352 342.812 343.4875 344.0591 344.6653 345.1212 345.5296 345.8289 346.0271 346.1649 346.1971 346.1363 -9999 -9999 -9999 -9999 -9999 -9999 -9999 -9999 -9999 -9999 -9999 -9999 -9999 -9999 -9999 -9999 -9999 -9999 -9999 -9999 -9999 -9999 -9999 -9999 -9999 -9999 -9999 -9999 -9999 -9999 -9999 -9999 -9999 -9999 -9999 -9999 -9999 -9999 -9999 -9999 -9999 -9999 -9999 -9999 -9999 -9999 -9999 -9999 -9999 -9999 -9999 -9999 -9999 -9999 -9999 -9999 -9999 -9999
-9999 -9999 -9999 -9999 -9999 -9999 -9999 -9999 -9999 -9999 -9999 -9999 -9999 -9999 -9999 -9999 290.5692 290.0452 289.3451 288.335 287.4176 286.472 285.6982 285.2607 285.1842 285.2583 285.3109 285.3208 285.3044 285.2763 285.2674 285.2842 285.3185 285.3414 285.3569 285.3711 285.3746 285.3423 285.2845 285.2218 285.2432 285.3199 285.2963 285.0074 284.327 283.6609 282.9268 282.0948 281.1531 280.0629 279.4459 279.2156 279.5119 280.1304 281.1414 282.132 283.2297 284.1689 285.566 288.6411 291.7842 294.9728 297.5238 299.5936 302.1192 304.3016 306.3182 307.9288 309.2469 310.7962 312.2803 313.9626 315.6572 317.1893 318.9172 320.3402 321.8356 323.3302 324.7655 326.5942 328.2624 330.0458 331.6609 333.0613 334.6755 336.0924 337.6538 339.1501 340.3914 341.5923 342.4413 343.238 343.9437 344.5403 345.1584 345.5982 345.9722 346.2308 346.3884 346.4773 346.4706 346.3817 346.2095 -9999 -9999 -9999 -9999 -9999 -9999 -9999 -9999 -9999 -9999 -9999 -9999 -9999 -9999 -9999 -9999 -9999 -9999 -9999 -9999 -9999 -9999 -9999 -9999 -9999 -9999 -9999 -9999 -9999 -9999 -9999 -9999 -9999 -9999 -9999 -9999 -9999 -9999 -9999 -9999 -9999 -9999 -9999 -9999 -9999 -9999 -9999 -9999 -9999 -9999 -9999 -9999 -9999 -9999 -9999 -9999 -9999
-9999 -9999 -9999 -9999 -9999 -9999 -9999 -9999 -9999 -9999 -9999 -9999 -9999 -9999 -9999 -9999 290.4431 289.9236 289.2324 288.234 287.3365 286.4408 285.742 285.3481 285.225 285.2544 285.2917 285.286 285.245 285.1917 285.1803 285.2157 285.2895 285.3684 285.4628 285.5346 285.5734 285.5306 285.424 285.2819 285.2583 285.3132 285.2708 284.9837 284.4037 283.8828 283.3362 282.6554 281.6758 280.3701 279.5821 279.3015 279.5306 280.0852 281.0696 282.0543 283.1656 284.131 285.5248 288.8574 292.3056 295.5287 297.9213 299.8779 302.4797 304.7254 306.7319 308.3 309.5912 311.1683 312.6978 314.4302 316.1083 317.5858 319.2581 320.6656 322.1937 323.7424 325.2113 327.0134 328.5994 330.2839 331.8945 333.3333 334.9997 336.4611 338.0457 339.5421 340.7678 341.9626 342.8318 343.661 344.3952 345.008 345.6254 346.0484 346.3969 346.6294 346.7637 346.8272 346.8052 346.7149 346.5605 -9999 -9999 -9999 -9999 -9999 -9999 -9999 -9999 -9999 -9999 -9999 -9999 -9999 -9999 -9999 -9999 -9999 -9999 -9999 -9999 -9999 -9999 -9999 -9999 -9999 -9999 -9999 -9999 -9999 -9999 -9999 -9999 -9999 -9999 -9999 -9999 -9999 -9999 -9999 -9999 -9999 -9999 -9999 -9999 -9999 -9999 -9999 -9999 -9999 -9999 -9999 -9999 -9999 -9999 -9999 -9999 -9999
-9999 -9999 -9999 -9999 -9999 -9999 -9999 -9999 -9999 -9999 -9999 -9999 -9999 -9999 -9999 -9999 290.3256 289.8039 289.132 288.1674 287.3089 286.4718 285.8334 285.459 285.2843 285.2626 285.2678 285.2331 285.1711 285.1051 285.0871 285.1301 285.2426 285.3983 285.6149 285.7665 285.8564 285.8293 285.6978 285.4891 285.3934 285.3878 285.3207 285.0328 284.5083 284.0529 283.5413 282.8357 281.8742 280.5704 279.7465 279.4223 279.5938 280.1204 281.1283 282.1649 283.2538 284.134 285.536 289.0203 292.6118 295.8795 298.2798 300.2971 302.9818 305.1807 307.0631 308.5498 309.8214 311.4474 313.0171 314.7865 316.435 317.8555 319.4822 320.8886 322.4516 324.0511 325.5428 327.2968 328.808 330.4359 332.0632 333.5482 335.2628 336.7391 338.3106 339.7771 340.9914 342.208 343.1086 343.9709 344.7222 345.3374 345.9483 346.362 346.7009 346.926 347.055 347.1154 347.0984 347.0231 346.8962 -9999 -9999 -9999 -9999 -9999 -9999 -9999 -9999 -9999 -9999 -9999 -9999 -9999 -9999 -9999 -9999 -9999 -9999 -9999 -9999 -9999 -9999 -9999 -9999 -9999 -9999 -9999 -9999 -9999 -9999 -9999 -9999 -9999 -9999 -9999 -9999 -9999 -9999 -9999 -9999 -9999 -9999 -9999 -9999 -9999 -9999 -9999 -9999 -9999 -9999 -9999 -9999 -9999 -9999 -9999 -9999 -9999
-9999 -9999 -9999 -9999 -9999 -9999 -9999 -9999 -9999 -9999 -9999 -9999 -9999 -9999 -9999 -9999 290.2072 289.6919 289.0485 288.1395 287.3315 286.533 285.9005 285.5054 285.2907 285.2346 285.2093 285.1601 285.0941 285.0259 285.0106 285.0623 285.2196 285.485 285.8563 286.1038 286.2548 286.2505 286.12 285.8844 285.7093 285.5835 285.4424 285.1813 284.7083 284.23 283.6495 282.8674 281.937 280.7399 279.9271 279.5065 279.6636 280.2161 281.2574 282.3135 283.3643 284.2792 285.7434 289.1906 292.6609 295.955 298.6176 300.88 303.5891 305.6545 307.3625 308.7248 309.9616 311.6797 313.3238 315.0967 316.7121 318.0827 319.6651 321.0778 322.682 324.3256 325.8292 327.5422 329.0045 330.6127 332.2588 333.7845 335.5404 337.0038 338.5292 339.9522 341.1588 342.4128 343.3563 344.2573 345.0278 345.6433 346.244 346.6489 346.9843 347.2124 347.3454 347.413 347.4092 347.3578 347.2626 -9999 -9999 -9999 -9999 -9999 -9999 -9999 -9999 -9999 -9999 -9999 -9999 -9999 -9999 -9999 -9999 -9999 -9999 -9999 -9999 -9999 -9999 -9999 -9999 -9999 -9999 -9999 -9999 -9999 -9999 -9999 -9999 -9999 -9999 -9999 -9999 -9999 -9999 -9999 -9999 -9999 -9999 -9999 -9999 -9999 -9999 -9999 -9999 -9999 -9999 -9999 -9999 -9999 -9999 -9999 -9999 -9999
-9999 -9999 -9999 -9999 -9999 -9999 -9999 -9999 -9999 -9999 -9999 -9999 -9999 -9999 -9999 -9999 290.1001 289.6135 289.0198 288.1831 287.4243 286.6313 285.9423 285.4684 285.2076 285.1615 285.1616 285.1332 285.0693 285.0002 285.0077 285.1044 285.3373 285.7069 286.1956 286.5081 286.6777 286.683 286.5886 286.3533 286.1069 285.8849 285.6923 285.4513 284.974 284.3894 283.7054 282.8896 281.975 280.8488 280.0419 279.5752 279.7597 280.3429 281.3815 282.3846 283.3813 284.4295 286.0794 289.5278 292.88 296.0624 298.761 301.1448 303.8955 305.9022 307.5341 308.8154 310.04 311.9194 313.6871 315.4442 316.9645 318.2565 319.7857 321.2108 322.8622 324.5443 326.0502 327.7303 329.1573 330.7556 332.4376 334.0108 335.785 337.215 338.684 340.0673 341.2734 342.5655 343.5519 344.4925 345.2846 345.9015 346.4888 346.8866 347.2226 347.4599 347.6064 347.692 347.7064 347.6775 347.6033 -9999 -9999 -9999 -9999 -9999 -9999 -9999 -9999 -9999 -9999 -9999 -9999 -9999 -9999 -9999 -9999 -9999 -9999 -9999 -9999 -9999 -9999 -9999 -9999 -9999 -9999 -9999 -9999 -9999 -9999 -9999 -9999 -9999 -9999 -9999 -9999 -9999 -9999 -9999 -9999 -9999 -9999 -9999 -9999 -9999 -9999 -9999 -9999 -9999 -9999 -9999 -9999 -9999 -9999 -9999 -9999 -9999
-9999 -9999 -9999 -9999 -9999 -9999 -9999 -9999 -9999 -9999 -9999 -9999 -9999 -9999 -9999 -9999 290.0337 289.5857 289.0495 288.2888 287.5751 286.7844 286.0371 285.4666 285.1397 285.1334 285.2049 285.2005 285.126 285.0487 285.0912 285.265 285.5891 286.0167 286.5456 286.8633 286.9803 286.961 286.9229 286.7487 286.502 286.2594 286.0267 285.7519 285.2107 284.4899 283.7236 282.9078 282.0136 280.9432 280.1893 279.7533 279.9026 280.4515 281.4533 282.4164 283.3842 284.5228 286.2829 289.8395 293.2563 296.2312 298.696 301.0067 303.8778 305.9648 307.6044 308.8864 310.176 312.2089 314.1035 315.8073 317.1913 318.3948 319.8836 321.3209 323.0098 324.721 326.2193 327.8625 329.2548 330.8438 332.5703 334.187 335.9691 337.3665 338.7942 340.1525 341.3603 342.6817 343.7013 344.6721 345.4788 346.0956 346.6728 347.0676 347.4079 347.6591 347.8245 347.9355 347.9714 347.963 347.9041 347.8151 -9999 -9999 -9999 -9999 -9999 -9999 -9999 -9999 -9999 -9999 -9999 -9999 -9999 -9999 -9999 -9999 -9999 -9999 -9999 -9999 -9999 -9999 -9999 -9999 -9999 -9999 -9999 -9999 -9999 -9999 -9999 -9999 -9999 -9999 -9999 -9999 -9999 -9999 -9999 -9999 -9999 -9999 -9999 -9999 -9999 -9999 -9999 -9999 -9999 -9999 -9999 -9999 -9999 -9999 -9999 -9999
-9999 -9999 -9999 -9999 -9999 -9999 -9999 -9999 -9999 -9999 -9999 -9999 -9999 -9999 -9999 -9999 290.0113 289.6238 289.1646 288.5 287.8477 287.0912 286.3443 285.7421 285.3267 285.2946 285.3986 285.4185 285.3558 285.2875 285.3672 285.6039 285.9833 286.4223 286.8898 287.08 287.0757 287.0277 287.0297 287.05 287.0946 286.9711 286.5474 286.0097 285.2447 284.4626 283.6971 282.903 282.0656 281.0783 280.4022 279.9889 280.0756 280.5679 281.4922 282.4135 283.4124 284.602 286.2836 289.8152 293.3034 296.2443 298.5196 300.6736 303.6663 305.8883 307.595 308.9468 310.356 312.5231 314.4611 316.1201 317.4139 318.5516 320.0165 321.4763 323.1948 324.9005 326.3743 327.9848 329.3592 330.9497 332.6928 334.3174 336.1055 337.5011 338.9111 340.2504 341.4567 342.7943 343.8376 344.8329 345.6461 346.2574 346.8286 347.2262 347.5809 347.8559 348.0489 348.1997 348.2686 348.295 348.2787 348.2431 348.2083 -9999 -9999 -9999 -9999 -9999 -9999 -9999 -9999 -9999 -9999 -9999 -9999 -9999 -9999 -9999 -9999 -9999 -9999 -9999 -9999 -9999 -9999 -9999 -9999 -9999 -9999 -9999 -9999 -9999 -9999 -9999 -9999 -9999 -9999 -9999 -9999 -9999 -9999 -9999 -9999 -9999 -9999 -9999 -9999 -9999 -9999 -9999 -9999 -9999 -9999 -9999 -9999 -9999 -9999 -9999
-9999 -9999 -9999 -9999 -9999 -9999 -9999 -9999 -9999 -9999 -9999 -9999 -9999 -9999 -9999 -9999 290.0338 289.7107 289.3264 288.7534 288.1693 287.4817 286.7999 286.2493 285.826 285.7147 285.7391 285.762 285.7519 285.7607 285.8606 286.0686 286.3788 286.7288 287.041 287.0813 286.9838 286.9247 287.0289 287.4375 287.9267 287.9791 287.1344 285.997 285.0223 284.41 283.7495 282.9644 282.1516 281.2094 280.5655 280.1597 280.2163 280.6649 281.5269 282.4198 283.4836 284.7416 286.4872 289.9416 293.2656 296.2284 298.4971 300.5695 303.4986 305.7356 307.4943 308.9787 310.5399 312.8002 314.6584 316.2779 317.5567 318.6822 320.1618 321.6613 323.4092 325.0862 326.5105 328.0768 329.4465 331.0482 332.7822 334.4047 336.2009 337.6055 339.0179 340.3515 341.5385 342.8615 343.9086 344.9167 345.7296 346.3373 346.9143 347.3227 347.6962 347.9979 348.2195 348.4065 348.5102 348.5778 348.6118 348.6267 348.6324 -9999 -9999 -9999 -9999 -9999 -9999 -9999 -9999 -9999 -9999 -9999 -9999 -9999 -9999 -9999 -9999 -9999 -9999 -9999 -9999 -9999 -9999 -9999 -9999 -9999 -9999 -9999 -9999 -9999 -9999 -9999 -9999 -9999 -9999 -9999 -9999 -9999 -9999 -9999 -9999 -9999 -9999 -9999 -9999 -9999 -9999 -9999 -9999 -9999 -9999 -9999 -9999 -9999 -9999 -9999
-9999 -9999 -9999 -9999 -9999 -9999 -9999 -9999 -9999 -9999 -9999 -9999 -9999 -9999 -9999 -9999 290.0847 289.8406 289.547 289.088 288.5996 288.0165 287.4321 286.9557 286.5602 286.3824 286.3082 286.32 286.3838 286.5134 286.6547 286.7917 286.8889 286.9731 287.0198 286.9891 286.8832 286.8275 287.1767 288.1811 289.0576 289.331 287.9525 285.8525 284.8676 284.6054 283.9905 283.1496 282.3047 281.3634 280.7324 280.3352 280.3667 280.7817 281.6221 282.5214 283.651 285.0033 286.8713 290.4957 293.7234 296.5165 298.6441 300.5659 303.2416 305.4178 307.3142 309.0466 310.8689 313.2762 315.0226 316.4708 317.6845 318.8106 320.343 321.9145 323.7143 325.3603 326.692 328.1621 329.4916 331.0908 332.8575 334.5224 336.3309 337.7257 339.1273 340.4429 341.6035 342.8946 343.9268 344.9283 345.7458 346.365 346.9641 347.3953 347.7957 348.1289 348.3831 348.6119 348.7558 348.8712 348.9565 349.0153 349.0583 349.0692 -9999 -9999 -9999 -9999 -9999 -9999 -9999 -9999 -9999 -9999 -9999 -9999 -9999 -9999 -9999 -9999 -9999 -9999 -9999 -9999 -9999 -9999 -9999 -9999 -9999 -9999 -9999 -9999 -9999 -9999 -9999 -9999 -9999 -9999 -9999 -9999 -9999 -9999 -9999 -9999 -9999 -9999 -9999 -9999 -9999 -9999 -9999 -9999 -9999 -9999 -9999 -9999 -9999 -9999
-9999 -9999 -9999 -9999 -9999 -9999 -9999 -9999 -9999 -9999 -9999 -9999 -9999 -9999 -9999 -9999 290.1526 289.9862 289.7849 289.4589 289.0946 288.6305 288.1382 287.7216 287.3492 287.1406 287.0206 287.0403 287.171 287.4287 287.6516 287.7699 287.5961 287.2108 286.8252 286.8444 286.978 287.0932 287.7102 288.9786 289.9174 290.1917 288.7468 286.3568 285.2729 285.0938 284.3689 283.4026 282.5007 281.5496 280.9178 280.5076 280.5037 280.8878 281.747 282.6886 283.8059 285.2434 287.3145 291.0447 294.3732 296.9814 298.8719 300.6064 303.0752 305.184 307.2094 309.1682 311.21 313.754 315.4071 316.6851 317.821 318.9452 320.5344 322.1689 324.0107 325.6331 326.8824 328.2398 329.4867 331.0679 332.909 334.6446 336.4695 337.843 339.2142 340.4977 341.6271 342.8806 343.8851 344.8668 345.6928 346.336 346.9718 347.437 347.8728 348.2403 348.5284 348.7985 348.9822 349.1429 349.2689 349.3575 349.4284 349.4603 349.476 -9999 -9999 -9999 -9999 -9999 -9999 -9999 -9999 -9999 -9999 -9999 -9999 -9999 -9999 -9999 -9999 -9999 -9999 -9999 -9999 -9999 -9999 -9999 -9999 -9999 -9999 -9999 -9999 -9999 -9999 -9999 -9999 -9999 -9999 -9999 -9999 -9999 -9999 -9999 -9999 -9999 -9999 -9999 -9999 -9999 -9999 -9999 -9999 -9999 -9999 -9999 -9999 -9999
-9999 -9999 -9999 -9999 -9999 -9999 -9999 -9999 -9999 -9999 -9999 -9999 -9999 -9999 -9999 -9999 290.216 290.1064 289.9802 289.7884 289.5582 289.2035 288.7748 288.3966 288.046 287.8379 287.7196 287.7618 287.9398 288.2888 288.6017 288.7873 288.5181 287.7295 286.7285 286.8083 287.3214 287.8346 288.57 289.6296 290.3094 290.4033 289.2885 287.5062 286.0675 285.4355 284.6293 283.6244 282.7041 281.7471 281.1058 280.681 280.6506 280.9483 281.821 282.8257 283.9509 285.4366 287.5118 291.084 294.5503 297.1584 298.9956 300.7503 303.1958 305.2643 307.2902 309.3301 311.4412 313.9497 315.5925 316.8711 317.9728 319.0861 320.7026 322.3734 324.2098 325.8105 327.0454 328.3363 329.509 331.0734 332.9823 334.7528 336.5854 337.9372 339.2677 340.5122 341.6156 342.8369 343.8141 344.781 345.6139 346.2769 346.9492 347.452 347.9275 348.3331 348.654 348.9603 349.1776 349.3759 349.5306 349.6357 349.7191 349.7642 349.8009 -9999 -9999 -9999 -9999 -9999 -9999 -9999 -9999 -9999 -9999 -9999 -9999 -9999 -9999 -9999 -9999 -9999 -9999 -9999 -9999 -9999 -9999 -9999 -9999 -9999 -9999 -9999 -9999 -9999 -9999 -9999 -9999 -9999 -9999 -9999 -9999 -9999 -9999 -9999 -9999 -9999 -9999 -9999 -9999 -9999 -9999 -9999 -9999 -9999 -9999 -9999 -9999 -9999
-9999 -9999 -9999 -9999 -9999 -9999 -9999 -9999 -9999 -9999 -9999 -9999 -9999 -9999 -9999 -9999 290.2715 290.2069 290.1399 290.0665 289.9848 289.7569 289.3922 289.0623 288.7586 288.5882 288.5094 288.5856 288.7903 289.1734 289.5348 289.8216 289.7292 289.0385 287.6489 287.6172 288.2396 288.9691 289.6188 290.1921 290.4794 290.4857 289.8308 288.6362 287.0575 285.8864 284.8414 283.8641 282.9549 281.9832 281.3187 280.8553 280.7422 280.9858 281.9782 283.0638 284.1954 285.6978 287.7069 290.8853 294.1003 296.7806 298.8422 300.8194 303.5157 305.6209 307.5916 309.652 311.8073 314.2403 315.8363 317.1095 318.1811 319.2755 320.909 322.5983 324.4415 326.0215 327.2405 328.5212 329.6918 331.2677 333.188 334.9579 336.7352 338.0324 339.3057 340.5021 341.5772 342.7676 343.7129 344.653 345.4848 346.1723 346.892 347.4438 347.9755 348.4352 348.7991 349.1469 349.3961 349.6237 349.7965 349.9074 349.9888 350.035 350.0797 350.1331 -9999 -9999 -9999 -9999 -9999 -9999 -9999 -9999 -9999 -9999 -9999 -9999 -9999 -9999 -9999 -9999 -9999 -9999 -9999 -9999 -9999 -9999 -9999 -9999 -9999 -9999 -9999 -9999 -9999 -9999 -9999 -9999 -9999 -9999 -9999 -9999 -9999 -9999 -9999 -9999 -9999 -9999 -9999 -9999 -9999 -9999 -9999 -9999 -9999 -9999 -9999 -9999
-9999 -9999 -9999 -9999 -9999 -9999 -9999 -9999 -9999 -9999 -9999 -9999 -9999 -9999 -9999 -9999 290.2977 290.258 290.2134 290.1624 290.1252 290.0033 289.7453 289.4942 289.2594 289.1421 289.1129 289.2189 289.4256 289.7735 290.0894 290.3409 290.3185 289.9268 289.1799 289.0526 289.3041 289.7958 290.2588 290.565 290.6672 290.5656 290.0205 289.0658 287.5825 286.2929 285.1144 284.1026 283.174 282.1783 281.4917 281.0044 280.907 281.2303 282.2416 283.3362 284.4201 285.8549 287.8375 290.6662 293.403 296.2094 298.6374 300.8672 303.6802 305.8628 307.9504 310.1107 312.3644 314.7842 316.2259 317.3774 318.385 319.4436 321.0715 322.7819 324.6472 326.2086 327.4131 328.7366 329.9867 331.5979 333.4526 335.1566 336.8714 338.1177 339.3401 340.4964 341.5457 342.709 343.6234 344.5283 345.3477 346.0531 346.8178 347.4194 348.0097 348.5237 348.9308 349.3168 349.5847 349.8187 349.987 350.0897 350.1592 350.1946 350.2281 350.2744 350.3352 -9999 -9999 -9999 -9999 -9999 -9999 -9999 -9999 -9999 -9999 -9999 -9999 -9999 -9999 -9999 -9999 -9999 -9999 -9999 -9999 -9999 -9999 -9999 -9999 -9999 -9999 -9999 -9999 -9999 -9999 -9999 -9999 -9999 -9999 -9999 -9999 -9999 -9999 -9999 -9999 -9999 -9999 -9999 -9999 -9999 -9999 -9999 -9999 -9999 -9999 -9999
-9999 -9999 -9999 -9999 -9999 -9999 -9999 -9999 -9999 -9999 -9999 -9999 -9999 -9999 -9999 -9999 290.3073 290.2811 290.2416 290.1814 290.1388 290.0842 289.9651 289.8277 289.696 289.649 289.6765 289.8092 290.0065 290.2761 290.479 290.602 290.5584 290.4013 290.2171 290.1709 290.2198 290.4051 290.675 290.9108 290.9163 290.6505 290.0315 289.1544 287.8234 286.6165 285.4407 284.3903 283.4308 282.4053 281.7023 281.214 281.1726 281.5395 282.4968 283.6097 284.7385 286.1362 287.9534 290.4221 292.9496 295.86 298.6096 301.0575 303.877 306.1172 308.3965 310.756 313.0946 315.436 316.7161 317.7242 318.6365 319.6427 321.2586 322.9662 324.8287 326.3755 327.5844 328.9641 330.3088 331.9847 333.796 335.4098 337.0469 338.2337 339.3983 340.512 341.5331 342.6602 343.5351 344.394 345.1861 345.8999 346.7201 347.3856 348.0468 348.6257 349.0856 349.5178 349.7999 350.0203 350.1564 350.2319 350.2818 350.302 350.313 350.3318 -9999 -9999 -9999 -9999 -9999 -9999 -9999 -9999 -9999 -9999 -9999 -9999 -9999 -9999 -9999 -9999 -9999 -9999 -9999 -9999 -9999 -9999 -9999 -9999 -9999 -9999 -9999 -9999 -9999 -9999 -9999 -9999 -9999 -9999 -9999 -9999 -9999 -9999 -9999 -9999 -9999 -9999 -9999 -9999 -9999 -9999 -9999 -9999 -9999 -9999 -9999 -9999
-9999 -9999 -9999 -9999 -9999 -9999 -9999 -9999 -9999 -9999 -9999 -9999 -9999 -9999 -9999 -9999 290.302 290.273 290.2328 290.1779 290.1415 290.117 290.0853 290.0501 290.0344 290.0682 290.1546 290.3055 290.4871 290.6669 290.7501 290.7547 290.6737 290.5853 290.536 290.5441 290.5817 290.6691 290.8353 291.0361 291.0093 290.6576 289.9362 289.0386 287.8284 286.7678 285.6891 284.6565 283.7076 282.6929 281.9907 281.4933 281.3989 281.6744 282.6258 283.8007 285.1294 286.6204 288.3326 290.6331 293.059 295.9945 298.8231 301.3469 304.1832 306.4527 308.8398 311.3309 313.6711 315.9026 317.1425 318.098 318.9395 319.8748 321.4652 323.1557 324.9685 326.5082 327.7328 329.136 330.5462 332.3516 334.2224 335.7739 337.2808 338.3857 339.4975 340.5791 341.5583 342.6331 343.4632 344.2747 345.029 345.7441 346.6267 347.358 348.089 348.7321 349.2465 349.729 350.0232 350.2097 350.2851 350.3144 350.3376 350.346 350.3401 -9999 -9999 -9999 -9999 -9999 -9999 -9999 -9999 -9999 -9999 -9999 -9999 -9999 -9999 -9999 -9999 -9999 -9999 -9999 -9999 -9999 -9999 -9999 -9999 -9999 -9999 -9999 -9999 -9999 -9999 -9999 -9999 -9999 -9999 -9999 -9999 -9999 -9999 -9999 -9999 -9999 -9999 -9999 -9999 -9999 -9999 -9999 -9999 -9999 -9999 -9999 -9999 -9999
-9999 -9999 -9999 -9999 -9999 -9999 -9999 -9999 -9999 -9999 -9999 -9999 -9999 -9999 -9999 -9999 290.2843 290.2489 290.2124 290.1736 290.1552 290.157 290.1796 290.217 290.2998 290.4147 290.5641 290.7325 290.8848 290.9957 291.0032 290.929 290.7951 290.6632 290.5747 290.5732 290.6273 290.7126 290.8064 290.883 290.8126 290.4764 289.7264 288.8457 287.7681 286.8421 285.8613 284.8857 283.9953 283.0462 282.3663 281.8402 281.6498 281.8471 282.7785 283.9714 285.4033 286.9839 288.6763 290.9287 293.3399 296.269 299.0568 301.5836 304.4371 306.7334 309.1705 311.7225 314.0495 316.2153 317.4607 318.4314 319.2762 320.1953 321.7498 323.3893 325.1437 326.6497 327.8822 329.3082 330.7698 332.7124 334.6501 336.1384 337.5154 338.5456 339.6137 340.663 341.6005 342.6218 343.4136 344.1935 344.9314 345.6522 346.5733 347.3499 348.1343 348.83 349.3886 349.9098 350.209 350.3607 350.3788 350.3591 350.352 350.3534 -9999 -9999 -9999 -9999 -9999 -9999 -9999 -9999 -9999 -9999 -9999 -9999 -9999 -9999 -9999 -9999 -9999 -9999 -9999 -9999 -9999 -9999 -9999 -9999 -9999 -9999 -9999 -9999 -9999 -9999 -9999 -9999 -9999 -9999 -9999 -9999 -9999 -9999 -9999 -9999 -9999 -9999 -9999 -9999 -9999 -9999 -9999 -9999 -9999 -9999 -9999 -9999 -9999 -9999
-9999 -9999 -9999 -9999 -9999 -9999 -9999 -9999 -9999 -9999 -9999 -9999 -9999 -9999 -9999 -9999 290.2539 290.2157 290.1876 290.1765 290.1906 290.2353 290.3231 290.438 290.6182 290.8068 291.0142 291.1928 291.3191 291.3905 291.3568 291.2281 291.0251 290.8229 290.643 290.5699 290.5667 290.6099 290.5748 290.2404 289.9159 289.6788 289.1359 288.5469 287.7798 287.0105 286.0971 285.1704 284.4021 283.6205 283.0045 282.4219 282.0956 282.14 283.0385 284.2905 285.6707 287.2528 288.9257 291.1676 293.5457 296.4046 299.2064 301.745 304.6055 306.9554 309.4695 312.0658 314.3839 316.4976 317.7481 318.7621 319.6819 320.6751 322.1866 323.7176 325.3752 326.844 328.1222 329.6847 331.2573 333.2087 335.078 336.4675 337.7466 338.7189 339.7486 340.7578 341.6506 342.6211 343.3779 344.1382 344.8863 345.6241 346.5566 347.3637 348.1966 348.9419 349.5373 350.0763 350.3608 350.4856 350.4688 350.4056 350.3487 -9999 -9999 -9999 -9999 -9999 -9999 -9999 -9999 -9999 -9999 -9999 -9999 -9999 -9999 -9999 -9999 -9999 -9999 -9999 -9999 -9999 -9999 -9999 -9999 -9999 -9999 -9999 -9999 -9999 -9999 -9999 -9999 -9999 -9999 -9999 -9999 -9999 -9999 -9999 -9999 -9999 -9999 -9999 -9999 -9999 -9999 -9999 -9999 -9999 -9999 -9999 -9999 -9999 -9999 -9999
-9999 -9999 -9999 -9999 -9999 -9999 -9999 -9999 -9999 -9999 -9999 -9999 -9999 -9999 -9999 -9999 -9999 290.1932 290.1764 290.1948 290.2478 290.3443 290.4945 290.6743 290.9199 291.1444 291.3706 291.5462 291.67 291.7409 291.6974 291.5525 291.3208 291.0858 290.8499 290.6929 290.5489 290.3911 290.118 289.2388 288.6399 288.5053 288.4787 288.3953 287.9622 287.3176 286.4459 285.535 284.8582 284.2585 283.7454 283.1288 282.5538 282.3075 283.1231 284.6485 286.0681 287.5498 289.1446 291.3974 293.6919 296.4054 299.2238 301.8002 304.715 307.1334 309.7267 312.3627 314.6489 316.6997 317.9397 318.9757 319.9453 321.0009 322.5292 323.9984 325.5757 327.0362 328.3805 330.0954 331.7516 333.6366 335.3598 336.6596 337.8857 338.8298 339.8307 340.8125 341.6823 342.6268 343.3653 344.1119 344.8548 345.5955 346.5523 347.3914 348.2602 349.0376 349.6516 350.1854 350.4496 350.5569 350.5211 350.4344 -9999 -9999 -9999 -9999 -9999 -9999 -9999 -9999 -9999 -9999 -9999 -9999 -9999 -9999 -9999 -9999 -9999 -9999 -9999 -9999 -9999 -9999 -9999 -9999 -9999 -9999 -9999 -9999 -9999 -9999 -9999 -9999 -9999 -9999 -9999 -9999 -9999 -9999 -9999 -9999 -9999 -9999 -9999 -9999 -9999 -9999 -9999 -9999 -9999 -9999 -9999 -9999 -9999 -9999 -9999 -9999
-9999 -9999 -9999 -9999 -9999 -9999 -9999 -9999 -9999 -9999 -9999 -9999 -9999 -9999 -9999 -9999 -9999 290.1855 290.1852 290.2487 290.3544 290.5145 290.7273 290.9607 291.2551 291.5022 291.7353 291.9089 292.0311 292.1059 292.0698 291.9308 291.7066 291.4634 291.1869 290.9534 290.6302 290.0694 289.1624 288.2142 287.997 288.003 288.2433 288.5094 288.3731 287.8337 287.003 286.1299 285.5063 285.0352 284.6725 284.1373 283.3051 282.5222 282.9779 284.8936 286.4367 287.8429 289.3642 291.586 293.8064 296.393 299.1721 301.7934 304.8338 307.3653 310.0587 312.717 314.9386 316.8976 318.1121 319.157 320.1537 321.273 322.8631 324.3049 325.8245 327.2801 328.6687 330.4708 332.1761 334.0292 335.6247 336.817 337.991 338.9153 339.8937 340.8529 341.7071 342.6361 343.3617 344.0952 344.8201 345.5524 346.5487 347.4283 348.335 349.141 349.7667 350.2876 350.5283 350.611 350.5543 -9999 -9999 -9999 -9999 -9999 -9999 -9999 -9999 -9999 -9999 -9999 -9999 -9999 -9999 -9999 -9999 -9999 -9999 -9999 -9999 -9999 -9999 -9999 -9999 -9999 -9999 -9999 -9999 -9999 -9999 -9999 -9999 -9999 -9999 -9999 -9999 -9999 -9999 -9999 -9999 -9999 -9999 -9999 -9999 -9999 -9999 -9999 -9999 -9999 -9999 -9999 -9999 -9999 -9999 -9999 -9999 -9999
-9999 -9999 -9999 -9999 -9999 -9999 -9999 -9999 -9999 -9999 -9999 -9999 -9999 -9999 -9999 -9999 -9999 290.2139 290.2394 290.3672 290.5342 290.7531 291.0153 291.2791 291.5975 291.8511 292.0859 292.2652 292.3831 292.4531 292.4311 292.317 292.1127 291.8773 291.5883 291.3216 290.8857 290.0034 288.5886 288.0018 287.9914 288.0032 288.335 288.947 288.9964 288.481 287.6424 286.7973 286.1916 285.7634 285.5487 285.256 284.5528 283.5474 283.5529 285.0498 286.4384 287.9138 289.497 291.7176 293.8983 296.4199 299.0949 301.7165 304.907 307.5916 310.4131 313.08 315.2291 317.0933 318.2744 319.3418 320.4187 321.6084 323.2271 324.6471 326.1319 327.5733 328.9536 330.7603 332.4745 334.284 335.8047 336.9393 338.0729 338.9816 339.9484 340.8904 341.729 342.6441 343.3604 344.0896 344.8201 345.5589 346.5576 347.4586 348.4016 349.2361 349.8698 350.373 350.5877 350.6414 -9999 -9999 -9999 -9999 -9999 -9999 -9999 -9999 -9999 -9999 -9999 -9999 -9999 -9999 -9999 -9999 -9999 -9999 -9999 -9999 -9999 -9999 -9999 -9999 -9999 -9999 -9999 -9999 -9999 -9999 -9999 -9999 -9999 -9999 -9999 -9999 -9999 -9999 -9999 -9999 -9999 -9999 -9999 -9999 -9999 -9999 -9999 -9999 -9999 -9999 -9999 -9999 -9999 -9999 -9999 -9999 -9999 -9999
-9999 -9999 -9999 -9999 -9999 -9999 -9999 -9999 -9999 -9999 -9999 -9999 -9999 -9999 -9999 -9999 -9999 290.3067 290.3675 290.5595 290.7733 291.0328 291.3237 291.6038 291.9289 292.1801 292.4121 292.5927 292.7093 292.7816 292.7723 292.6776 292.4828 292.2514 291.9756 291.7246 291.3051 290.4359 289.0905 288.0941 287.9896 288.0022 288.4018 289.381 289.5701 289.0219 288.1501 287.3043 286.6969 286.297 286.1797 286.0766 285.6682 284.8957 284.3807 285.0727 286.2251 287.7686 289.4986 291.8237 294.0191 296.4944 299.0675 301.6466 304.9129 307.7404 310.6856 313.3819 315.4885 317.2846 318.4321 319.5313 320.7209 321.9942 323.6219 325.0203 326.4776 327.8942 329.2489 331.0443 332.7418 334.4833 335.9413 337.045 338.1456 339.0352 339.989 340.9176 341.7428 342.6481 343.3622 344.0916 344.8281 345.5705 346.5558 347.467 348.4397 349.3027 349.9474 350.4354 350.6209 350.6425 350.5451 -9999 -9999 -9999 -9999 -9999 -9999 -9999 -9999 -9999 -9999 -9999 -9999 -9999 -9999 -9999 -9999 -9999 -9999 -9999 -9999 -9999 -9999 -9999 -9999 -9999 -9999 -9999 -9999 -9999 -9999 -9999 -9999 -9999 -9999 -9999 -9999 -9999 -9999 -9999 -9999 -9999 -9999 -9999 -9999 -9999 -9999 -9999 -9999 -9999 -9999 -9999 -9999 -9999 -9999 -9999 -9999 -9999
-9999 -9999 -9999 -9999 -9999 -9999 -9999 -9999 -9999 -9999 -9999 -9999 -9999 -9999 -9999 -9999 -9999 -9999 290.6951 290.9181 291.1524 291.4331 291.7349 292.02 292.3422 292.5875 292.8138 292.9898 293.1082 293.1972 293.2078 293.1264 292.9361 292.7022 292.4396 292.2587 292.0231 291.5334 290.7144 289.5305 288.859 288.2711 288.7039 289.6373 289.8775 289.3572 288.5171 287.6913 287.0901 286.7033 286.6322 286.6383 286.4527 285.9144 284.7516 284.6501 285.6713 287.3876 289.3939 292.0153 294.3046 296.7196 299.1484 301.6694 305.0261 307.9453 310.9779 313.711 315.7664 317.4937 318.6153 319.7594 321.0776 322.4771 324.1598 325.5337 326.9398 328.32 329.6731 331.4804 333.1558 334.8327 336.1767 337.1955 338.2355 339.0884 340.0083 340.922 341.7446 342.6517 343.3711 344.1003 344.8142 345.5291 346.5162 347.4402 348.4294 349.3136 349.976 350.4566 350.6076 350.5903 350.4788 350.3868 -9999 -9999 -9999 -9999 -9999 -9999 -9999 -9999 -9999 -9999 -9999 -9999 -9999 -9999 -9999 -9999 -9999 -9999 -9999 -9999 -9999 -9999 -9999 -9999 -9999 -9999 -9999 -9999 -9999 -9999 -9999 -9999 -9999 -9999 -9999 -9999 -9999 -9999 -9999 -9999 -9999 -9999 -9999 -9999 -9999 -9999 -9999 -9999 -9999 -9999 -9999 -9999 -9999 -9999 -9999 -9999
-9999 -9999 -9999 -9999 -9999 -9999 -9999 -9999 -9999 -9999 -9999 -9999 -9999 -9999 -9999 -9999 -9999 -9999 291.0929 291.3183 291.5477 291.8276 292.1299 292.4142 292.7314 292.9753 293.2001 293.3729 293.4918 293.5948 293.6282 293.5747 293.3989 293.1618 292.8896 292.7578 292.7289 292.7177 292.575 292.0065 291.0954 290.0301 289.7701 289.9068 289.8182 289.3622 288.6459 287.9049 287.3256 286.8963 286.7878 286.8322 286.7615 286.2303 284.6326 284.0523 285.0612 286.9906 289.285 292.3272 294.8112 297.1224 299.3272 301.7877 305.2509 308.2166 311.2656 313.969 315.9617 317.6255 318.7531 319.9568 321.4005 322.9089 324.657 325.9959 327.3345 328.6804 330.0489 331.8841 333.5492 335.1797 336.4171 337.3499 338.3215 339.1326 340.0172 340.9112 341.7292 342.6447 343.3767 344.1156 344.8191 345.5096 346.4854 347.3895 348.3521 349.2214 349.8868 350.3788 350.5186 350.4813 350.3777 350.3203 350.3303 -9999 -9999 -9999 -9999 -9999 -9999 -9999 -9999 -9999 -9999 -9999 -9999 -9999 -9999 -9999 -9999 -9999 -9999 -9999 -9999 -9999 -9999 -9999 -9999 -9999 -9999 -9999 -9999 -9999 -9999 -9999 -9999 -9999 -9999 -9999 -9999 -9999 -9999 -9999 -9999 -9999 -9999 -9999 -9999 -9999 -9999 -9999 -9999 -9999 -9999 -9999 -9999 -9999 -9999 -9999
-9999 -9999 -9999 -9999 -9999 -9999 -9999 -9999 -9999 -9999 -9999 -9999 -9999 -9999 -9999 -9999 -9999 -9999 -9999 291.8049 292.0262 292.298 292.5959 292.8812 293.1988 293.4448 293.674 293.8449 293.9626 294.069 294.1192 294.1082 293.9862 293.7607 293.4428 293.3156 293.4485 293.8775 294.369 294.5201 293.9309 292.804 291.4504 290.4341 289.774 289.2981 288.7007 288.0893 287.5588 287.0438 286.8058 286.8115 286.8275 286.3977 284.9031 284.1271 284.727 286.5951 289.1351 292.7693 295.5353 297.679 299.5976 301.9551 305.5034 308.5263 311.541 314.1277 316.0466 317.7053 318.8898 320.193 321.7564 323.3478 325.1396 326.4401 327.7167 329.022 330.3921 332.272 333.9154 335.471 336.6546 337.5291 338.4267 339.1823 340.0235 340.8908 341.6964 342.6159 343.3679 344.14 344.8773 345.578 346.4857 347.3099 348.1902 348.9932 349.6237 350.1266 350.2896 350.2755 350.2125 350.1902 350.2153 350.2559 -9999 -9999 -9999 -9999 -9999 -9999 -9999 -9999 -9999 -9999 -9999 -9999 -9999 -9999 -9999 -9999 -9999 -9999 -9999 -9999 -9999 -9999 -9999 -9999 -9999 -9999 -9999 -9999 -9999 -9999 -9999 -9999 -9999 -9999 -9999 -9999 -9999 -9999 -9999 -9999 -9999 -9999 -9999 -9999 -9999 -9999 -9999 -9999 -9999 -9999 -9999 -9999 -9999 -9999
-9999 -9999 -9999 -9999 -9999 -9999 -9999 -9999 -9999 -9999 -9999 -9999 -9999 -9999 -9999 -9999 -9999 -9999 -9999 -9999 292.5509 292.8112 293.1036 293.3906 293.7207 293.9749 294.2072 294.3756 294.4914 294.5785 294.6024 294.6049 294.5736 294.4013 294.0205 293.8524 294.0172 294.5865 295.3012 295.8808 295.7807 294.8906 293.1148 291.3753 290.082 289.3922 288.7956 288.2938 287.8427 287.2851 286.8906 286.7389 286.7787 286.6144 285.7247 284.923 284.8476 286.3316 289.0104 293.1154 296.0403 298.1407 300.0426 302.3293 305.7725 308.7918 311.7359 314.1805 316.0295 317.7271 319.0131 320.456 322.0863 323.6799 325.4489 326.7489 328.0268 329.3212 330.6976 332.6216 334.2588 335.7491 336.8737 337.7039 338.5405 339.2375 340.0233 340.8553 341.6408 342.5544 343.3279 344.1481 344.9382 345.6475 346.4726 347.1835 347.937 348.6291 349.1808 349.647 349.8524 349.9229 349.9295 349.9447 349.9916 350.0449 350.0987 -9999 -9999 -9999 -9999 -9999 -9999 -9999 -9999 -9999 -9999 -9999 -9999 -9999 -9999 -9999 -9999 -9999 -9999 -9999 -9999 -9999 -9999 -9999 -9999 -9999 -9999 -9999 -9999 -9999 -9999 -9999 -9999 -9999 -9999 -9999 -9999 -9999 -9999 -9999 -9999 -9999 -9999 -9999 -9999 -9999 -9999 -9999 -9999 -9999 -9999 -9999 -9999 -9999
-9999 -9999 -9999 -9999 -9999 -9999 -9999 -9999 -9999 -9999 -9999 -9999 -9999 -9999 -9999 -9999 -9999 -9999 -9999 -9999 293.0721 293.3159 293.5949 293.8827 294.2344 294.5077 294.7384 294.8926 294.9969 295.0406 294.9855 294.9447 294.9836 294.8933 294.5415 294.3368 294.4157 294.8803 295.5428 296.2706 296.415 295.8039 294.2282 292.395 290.6441 289.6671 289.006 288.5808 288.2114 287.6959 287.2432 286.8991 286.8367 286.8789 286.5909 285.9073 285.3267 286.2768 288.9485 293.1993 296.187 298.4163 300.4543 302.6917 305.9465 308.93 311.8286 314.1765 315.9847 317.7267 319.0895 320.6279 322.3131 323.8945 325.6235 326.9359 328.2493 329.5948 331.0157 332.9374 334.5553 335.9946 337.0598 337.8518 338.6471 339.3002 340.0324 340.813 341.5662 342.4664 343.2493 344.1023 344.9303 345.637 346.3888 346.9981 347.6291 348.2083 348.6758 349.0924 349.3225 349.4641 349.5381 349.5949 349.6739 349.7541 349.8443 349.9301 -9999 -9999 -9999 -9999 -9999 -9999 -9999 -9999 -9999 -9999 -9999 -9999 -9999 -9999 -9999 -9999 -9999 -9999 -9999 -9999 -9999 -9999 -9999 -9999 -9999 -9999 -9999 -9999 -9999 -9999 -9999 -9999 -9999 -9999 -9999 -9999 -9999 -9999 -9999 -9999 -9999 -9999 -9999 -9999 -9999 -9999 -9999 -9999 -9999 -9999 -9999 -9999
-9999 -9999 -9999 -9999 -9999 -9999 -9999 -9999 -9999 -9999 -9999 -9999 -9999 -9999 -9999 -9999 -9999 -9999 -9999 -9999 -9999 293.9467 294.1812 294.4487 294.83 295.1442 295.3822 295.5183 295.5798 295.5216 295.3482 295.2244 295.3683 295.4781 295.2954 295.0313 294.8995 295.119 295.5999 296.1986 296.3416 295.8974 294.7039 293.1531 291.3306 290.1898 289.502 289.1495 288.863 288.422 287.9531 287.4729 287.212 287.2311 287.3491 287.1265 286.4616 286.7118 288.9886 293.0763 296.2366 298.666 300.6271 302.7146 305.8879 308.8702 311.7911 314.1464 315.941 317.7301 319.1517 320.7521 322.4909 324.0782 325.7719 327.0689 328.4089 329.8308 331.3182 333.2348 334.8142 336.2084 337.2395 338.0026 338.7658 339.3772 340.0399 340.7451 341.4445 342.3069 343.0739 343.9221 344.7522 345.4498 346.1364 346.6537 347.1759 347.6519 348.0403 348.4027 348.6309 348.8051 348.9249 349.0186 349.139 349.2625 349.4182 349.5971 349.7746 -9999 -9999 -9999 -9999 -9999 -9999 -9999 -9999 -9999 -9999 -9999 -9999 -9999 -9999 -9999 -9999 -9999 -9999 -9999 -9999 -9999 -9999 -9999 -9999 -9999 -9999 -9999 -9999 -9999 -9999 -9999 -9999 -9999 -9999 -9999 -9999 -9999 -9999 -9999 -9999 -9999 -9999 -9999 -9999 -9999 -9999 -9999 -9999 -9999 -9999 -9999
-9999 -9999 -9999 -9999 -9999 -9999 -9999 -9999 -9999 -9999 -9999 -9999 -9999 -9999 -9999 -9999 -9999 -9999 -9999 -9999 -9999 294.5298 294.6995 294.9219 295.3103 295.6544 295.929 296.0786 296.1239 296.0362 295.8452 295.7377 296.081 296.419 296.3563 295.9925 295.6438 295.6392 295.8858 296.1627 296.1163 295.6555 294.6842 293.4385 291.8661 290.8118 290.1624 289.8349 289.5912 289.1626 288.6832 288.1551 287.7594 287.5954 287.6551 287.6758 287.3979 287.5481 289.3811 292.9412 296.2373 298.8796 300.5767 302.4861 305.7499 308.8354 311.7971 314.1121 315.8911 317.7198 319.2064 320.8628 322.599 324.1765 325.8462 327.1102 328.4402 329.8771 331.4069 333.381 334.9753 336.3471 337.3589 338.1039 338.8364 339.4134 340.0272 340.6693 341.3065 342.1035 342.8255 343.6295 344.4217 345.0996 345.7498 346.2286 346.7142 347.1519 347.5031 347.8276 348.0341 348.1958 348.3124 348.4084 348.5419 348.6978 348.9144 349.1883 349.4791 349.833 -9999 -9999 -9999 -9999 -9999 -9999 -9999 -9999 -9999 -9999 -9999 -9999 -9999 -9999 -9999 -9999 -9999 -9999 -9999 -9999 -9999 -9999 -9999 -9999 -9999 -9999 -9999 -9999 -9999 -9999 -9999 -9999 -9999 -9999 -9999 -9999 -9999 -9999 -9999 -9999 -9999 -9999 -9999 -9999 -9999 -9999 -9999 -9999 -9999 -9999
-9999 -9999 -9999 -9999 -9999 -9999 -9999 -9999 -9999 -9999 -9999 -9999 -9999 -9999 -9999 -9999 -9999 -9999 -9999 -9999 -9999 -9999 295.3061 295.4746 295.8463 296.2019 296.517 296.7152 296.8105 296.8387 296.8552 297.0295 297.538 297.972 297.9171 297.4586 296.9543 296.7019 296.6205 296.4606 296.1102 295.485 294.6084 293.6334 292.4561 291.6364 291.023 290.6504 290.3826 289.947 289.4863 288.9618 288.4885 288.1236 287.7962 287.4992 287.277 288.1114 290.0343 292.9402 295.9944 298.8528 300.5401 302.3173 305.5961 308.7519 311.7375 314.015 315.7958 317.6665 319.2177 320.9243 322.6415 324.1757 325.8061 327.0582 328.38 329.8125 331.3944 333.4629 335.0729 336.4587 337.459 338.1676 338.8481 339.3844 339.9585 340.5464 341.1084 341.8038 342.4454 343.172 343.894 344.5248 345.1623 345.6486 346.1552 346.6041 346.9457 347.2407 347.4163 347.544 347.6248 347.6867 347.792 347.9522 348.2173 348.5958 349.0246 349.5716 350.0065 -9999 -9999 -9999 -9999 -9999 -9999 -9999 -9999 -9999 -9999 -9999 -9999 -9999 -9999 -9999 -9999 -9999 -9999 -9999 -9999 -9999 -9999 -9999 -9999 -9999 -9999 -9999 -9999 -9999 -9999 -9999 -9999 -9999 -9999 -9999 -9999 -9999 -9999 -9999 -9999 -9999 -9999 -9999 -9999 -9999 -9999 -9999 -9999 -9999
-9999 -9999 -9999 -9999 -9999 -9999 -9999 -9999 -9999 -9999 -9999 -9999 -9999 -9999 -9999 -9999 -9999 -9999 -9999 -9999 -9999 -9999 -9999 296.1666 296.4764 296.7994 297.1309 297.4044 297.621 297.8788 298.2012 298.7169 299.2795 299.6431 299.4928 298.9686 298.4207 298.0373 297.7384 297.2502 296.5951 295.6836 294.7246 293.895 293.0329 292.4257 291.8828 291.4299 291.0534 290.6049 290.1913 289.7183 289.2448 288.7809 288.0788 287.3383 286.8913 287.9161 289.9603 292.7716 295.6132 298.6538 300.6126 302.3413 305.3822 308.3653 311.3602 313.7572 315.6036 317.5411 319.1412 320.8689 322.5647 324.0494 325.6354 326.885 328.2298 329.7235 331.3984 333.575 335.2183 336.5934 337.5245 338.1478 338.7469 339.2399 339.7809 340.3264 340.8227 341.4028 341.9358 342.5614 343.2039 343.7881 344.4434 344.9779 345.5437 346.0373 346.3899 346.6768 346.835 346.9332 346.966 346.9644 346.9825 347.0913 347.3624 347.8333 348.4078 349.1723 349.7972 350.3257 -9999 -9999 -9999 -9999 -9999 -9999 -9999 -9999 -9999 -9999 -9999 -9999 -9999 -9999 -9999 -9999 -9999 -9999 -9999 -9999 -9999 -9999 -9999 -9999 -9999 -9999 -9999 -9999 -9999 -9999 -9999 -9999 -9999 -9999 -9999 -9999 -9999 -9999 -9999 -9999 -9999 -9999 -9999 -9999 -9999 -9999 -9999 -9999
-9999 -9999 -9999 -9999 -9999 -9999 -9999 -9999 -9999 -9999 -9999 -9999 -9999 -9999 -9999 -9999 -9999 -9999 -9999 -9999 -9999 -9999 -9999 296.8702 297.1275 297.4041 297.7366 298.089 298.4359 298.8947 299.381 299.9968 300.4948 300.7108 300.5219 300.0642 299.5914 299.2432 298.9184 298.3131 297.4506 296.2494 295.1028 294.2941 293.6012 293.1043 292.5966 292.0863 291.6182 291.113 290.7145 290.2872 289.8416 289.3672 288.5244 287.5941 287.1046 287.9105 289.6502 292.4551 295.3746 298.505 300.767 302.5209 305.1545 307.9148 310.8984 313.3754 315.3076 317.349 319.0114 320.7561 322.4226 323.8572 325.3987 326.6402 328.0089 329.5838 331.3578 333.6927 335.4259 336.7374 337.5276 338.0348 338.5472 338.9997 339.5116 340.0212 340.4647 340.9463 341.3724 341.8957 342.4773 343.0405 343.7178 344.2995 344.9134 345.447 345.821 346.1312 346.2998 346.3982 346.4062 346.3479 346.253 346.2649 346.4996 347.0361 347.7374 348.7009 349.504 350.1981 350.5803 -9999 -9999 -9999 -9999 -9999 -9999 -9999 -9999 -9999 -9999 -9999 -9999 -9999 -9999 -9999 -9999 -9999 -9999 -9999 -9999 -9999 -9999 -9999 -9999 -9999 -9999 -9999 -9999 -9999 -9999 -9999 -9999 -9999 -9999 -9999 -9999 -9999 -9999 -9999 -9999 -9999 -9999 -9999 -9999 -9999 -9999 -9999
-9999 -9999 -9999 -9999 -9999 -9999 -9999 -9999 -9999 -9999 -9999 -9999 -9999 -9999 -9999 -9999 -9999 -9999 -9999 -9999 -9999 -9999 -9999 -9999 297.9113 298.157 298.4934 298.9133 299.3693 299.9501 300.4211 300.9012 301.2393 301.3465 301.1969 300.9146 300.617 300.3941 300.1734 299.6651 298.7712 297.4118 296.0421 295.1046 294.4023 293.8901 293.3304 292.7577 292.2294 291.6502 291.2162 290.7822 290.3351 289.8808 289.1324 288.2885 287.6722 288.264 289.8244 292.5556 295.3764 298.2539 300.6348 302.4824 304.8732 307.3868 310.2208 312.7097 314.767 316.9922 318.7857 320.5878 322.2013 323.555 325.0259 326.2489 327.6165 329.1827 330.9546 333.5457 335.4827 336.6997 337.327 337.7393 338.1802 338.5862 339.0589 339.5245 339.9164 340.3096 340.6304 341.0408 341.5766 342.1339 342.8101 343.3961 344.0106 344.5605 344.9878 345.3772 345.6005 345.7541 345.7926 345.7231 345.5252 345.4089 345.5604 346.1133 346.919 348.0753 349.0688 349.9683 350.4878 -9999 -9999 -9999 -9999 -9999 -9999 -9999 -9999 -9999 -9999 -9999 -9999 -9999 -9999 -9999 -9999 -9999 -9999 -9999 -9999 -9999 -9999 -9999 -9999 -9999 -9999 -9999 -9999 -9999 -9999 -9999 -9999 -9999 -9999 -9999 -9999 -9999 -9999 -9999 -9999 -9999 -9999 -9999 -9999 -9999 -9999 -9999
-9999 -9999 -9999 -9999 -9999 -9999 -9999 -9999 -9999 -9999 -9999 -9999 -9999 -9999 -9999 -9999 -9999 -9999 -9999 -9999 -9999 -9999 -9999 -9999 -9999 298.8097 299.1581 299.5981 300.0636 300.6121 301.0088 301.3615 301.5881 301.6607 301.5806 301.4258 301.2439 301.0822 300.9153 300.5232 299.7963 298.5487 297.1857 296.1225 295.208 294.5717 293.9179 293.2802 292.7161 292.0876 291.6018 291.1212 290.6525 290.2211 289.68 289.1411 288.5394 289.0057 290.4492 292.9964 295.4554 297.9612 300.2039 302.0741 304.5113 306.8491 309.4291 311.8844 314.0724 316.5226 318.4586 320.3252 321.9166 323.2151 324.6246 325.822 327.1802 328.6967 330.3647 332.9197 334.909 336.1648 336.8587 337.3146 337.7513 338.1236 338.554 338.9825 339.3416 339.6952 339.972 340.3261 340.8299 341.3636 341.9984 342.5385 343.1066 343.6428 344.101 344.5612 344.8696 345.1116 345.2264 345.2111 345.0327 344.8976 344.9925 345.4876 346.3047 347.5471 348.638 349.6664 350.2995 -9999 -9999 -9999 -9999 -9999 -9999 -9999 -9999 -9999 -9999 -9999 -9999 -9999 -9999 -9999 -9999 -9999 -9999 -9999 -9999 -9999 -9999 -9999 -9999 -9999 -9999 -9999 -9999 -9999 -9999 -9999 -9999 -9999 -9999 -9999 -9999 -9999 -9999 -9999 -9999 -9999 -9999 -9999 -9999 -9999 -9999 -9999
-9999 -9999 -9999 -9999 -9999 -9999 -9999 -9999 -9999 -9999 -9999 -9999 -9999 -9999 -9999 -9999 -9999 -9999 -9999 -9999 -9999 -9999 -9999 -9999 -9999 299.5027 299.8705 300.2985 300.7122 301.1624 301.4782 301.737 301.8959 301.9602 301.944 301.871 301.754 301.6084 301.4354 301.0878 300.5398 299.629 298.442 297.2979 296.1306 295.3119 294.539 293.8335 293.2272 292.5698 292.032 291.4715 290.9637 290.5621 290.2141 290.002 289.597 290.0436 291.2176 293.35 295.4146 297.5747 299.6431 301.5472 304.0193 306.2099 308.5018 310.7975 313.0674 315.7877 317.8644 319.8123 321.4314 322.7183 324.0945 325.2687 326.6235 328.1074 329.6418 331.7134 333.463 334.9825 336.0302 336.6487 337.1327 337.4964 337.8972 338.2943 338.6329 338.9796 339.2647 339.6237 340.0782 340.5504 341.1109 341.5738 342.0717 342.5794 343.0499 343.5703 343.9641 344.304 344.5186 344.5938 344.5433 344.5076 344.6328 345.0837 345.8392 347.0463 348.1306 349.1747 349.885 350.1836 -9999 -9999 -9999 -9999 -9999 -9999 -9999 -9999 -9999 -9999 -9999 -9999 -9999 -9999 -9999 -9999 -9999 -9999 -9999 -9999 -9999 -9999 -9999 -9999 -9999 -9999 -9999 -9999 -9999 -9999 -9999 -9999 -9999 -9999 -9999 -9999 -9999 -9999 -9999 -9999 -9999 -9999 -9999 -9999 -9999 -9999
-9999 -9999 -9999 -9999 -9999 -9999 -9999 -9999 -9999 -9999 -9999 -9999 -9999 -9999 -9999 -9999 -9999 -9999 -9999 -9999 -9999 -9999 -9999 -9999 -9999 -9999 300.5661 300.9628 301.3122 301.6735 301.9189 302.1181 302.252 302.3236 302.3351 302.2894 302.1907 302.0334 301.8338 301.5015 301.0845 300.4336 299.4373 298.3112 297.0208 296.0496 295.1396 294.3817 293.768 293.0986 292.5176 291.8788 291.3021 290.8842 290.5941 290.4045 289.8513 290.4411 292.0585 293.824 295.3906 297.2014 299.1399 301.0455 303.4868 305.5632 307.6329 309.6955 311.8874 314.7175 316.9013 318.9383 320.6494 322.0091 323.4273 324.6129 325.9586 327.3734 328.6893 330.2175 331.676 333.4243 334.8447 335.6618 336.2613 336.6812 337.1096 337.5081 337.8477 338.2149 338.5335 338.9104 339.3301 339.748 340.2367 340.6264 341.0553 341.5356 342.0216 342.5914 343.0458 343.4674 343.7783 343.9685 344.102 344.2193 344.4529 344.9193 345.5957 346.6484 347.6175 348.5749 349.2836 349.6675 -9999 -9999 -9999 -9999 -9999 -9999 -9999 -9999 -9999 -9999 -9999 -9999 -9999 -9999 -9999 -9999 -9999 -9999 -9999 -9999 -9999 -9999 -9999 -9999 -9999 -9999 -9999 -9999 -9999 -9999 -9999 -9999 -9999 -9999 -9999 -9999 -9999 -9999 -9999 -9999 -9999 -9999 -9999 -9999 -9999 -9999
-9999 -9999 -9999 -9999 -9999 -9999 -9999 -9999 -9999 -9999 -9999 -9999 -9999 -9999 -9999 -9999 -9999 -9999 -9999 -9999 -9999 -9999 -9999 -9999 -9999 -9999 -9999 301.5718 301.878 302.1833 302.388 302.5574 302.6777 302.7463 302.7599 302.712 302.6006 302.4202 302.2036 301.8856 301.5229 300.9566 300.0927 299.0685 297.7759 296.7235 295.7013 294.8965 294.3037 293.6536 293.0418 292.3335 291.6704 291.1913 290.9451 290.872 290.2582 290.6996 292.6794 294.2773 295.4552 296.9459 298.7039 300.5378 302.9636 304.9391 306.8942 308.8396 310.8698 313.5255 315.6828 317.7678 319.6159 321.131 322.645 323.8703 325.2255 326.5753 327.7463 329.0372 330.3278 332.0019 333.4823 334.4485 335.2171 335.747 336.258 336.6989 337.0641 337.4642 337.8108 338.1992 338.6055 338.9993 339.4514 339.8117 340.2085 340.6797 341.1876 341.7957 342.2899 342.7675 343.1599 343.4555 343.7492 344.005 344.3496 344.8432 345.4537 346.3406 347.1661 348.0106 348.6836 349.1074 -9999 -9999 -9999 -9999 -9999 -9999 -9999 -9999 -9999 -9999 -9999 -9999 -9999 -9999 -9999 -9999 -9999 -9999 -9999 -9999 -9999 -9999 -9999 -9999 -9999 -9999 -9999 -9999 -9999 -9999 -9999 -9999 -9999 -9999 -9999 -9999 -9999 -9999 -9999 -9999 -9999 -9999 -9999 -9999 -9999 -9999
-9999 -9999 -9999 -9999 -9999 -9999 -9999 -9999 -9999 -9999 -9999 -9999 -9999 -9999 -9999 -9999 -9999 -9999 -9999 -9999 -9999 -9999 -9999 -9999 -9999 -9999 -9999 302.3101 302.5836 302.8592 303.0509 303.2088 303.3084 303.3521 303.3447 303.2881 303.1497 302.9247 302.681 302.3662 302.0279 301.5107 300.7427 299.8205 298.5879 297.5122 296.4329 295.5763 294.9835 294.386 293.7842 293.0017 292.229 291.7361 291.6922 291.7616 291.1954 291.3219 293.0575 294.5244 295.5105 296.7507 298.3176 300.0381 302.2934 304.1339 306.0362 307.8925 309.6958 311.9565 313.9365 316.0212 317.9965 319.699 321.4057 322.7676 324.2092 325.5566 326.6972 327.9872 329.1804 330.5579 331.8203 332.7962 333.7302 334.4177 335.0725 335.6157 336.0555 336.5147 336.8867 337.2877 337.7036 338.1064 338.5761 338.972 339.4181 339.9228 340.445 341.085 341.6075 342.1226 342.5816 342.9709 343.4069 343.7887 344.2339 344.7442 345.2845 346.0058 346.6786 347.3979 348.0165 348.4509 -9999 -9999 -9999 -9999 -9999 -9999 -9999 -9999 -9999 -9999 -9999 -9999 -9999 -9999 -9999 -9999 -9999 -9999 -9999 -9999 -9999 -9999 -9999 -9999 -9999 -9999 -9999 -9999 -9999 -9999 -9999 -9999 -9999 -9999 -9999 -9999 -9999 -9999 -9999 -9999 -9999 -9999 -9999 -9999 -9999 -9999
-9999 -9999 -9999 -9999 -9999 -9999 -9999 -9999 -9999 -9999 -9999 -9999 -9999 -9999 -9999 -9999 -9999 -9999 -9999 -9999 -9999 -9999 -9999 -9999 -9999 -9999 -9999 -9999 303.2238 303.5071 303.7104 303.8665 303.9401 303.954 303.9305 303.8752 303.7284 303.474 303.2015 302.8737 302.5485 302.0676 301.3429 300.4573 299.2533 298.1785 297.0859 296.202 295.5832 295.0158 294.4899 293.7136 292.8731 292.4552 292.4338 292.3466 291.9913 291.9585 293.0646 294.4536 295.4154 296.6032 298.0631 299.6054 301.5285 303.2204 305.1357 306.9718 308.6316 310.618 312.4359 314.4338 316.3587 318.0901 320.051 321.6433 323.2277 324.6261 325.8044 327.1249 328.2451 329.4214 330.4736 331.3596 332.3443 333.1351 333.9055 334.5592 335.0847 335.6147 336.0209 336.4478 336.8937 337.3315 337.8631 338.3344 338.8712 339.448 340.0104 340.6725 341.2029 341.7273 342.213 342.6495 343.1646 343.6162 344.1138 344.6202 345.1034 345.7173 346.3006 346.9422 347.5137 347.9349 -9999 -9999 -9999 -9999 -9999 -9999 -9999 -9999 -9999 -9999 -9999 -9999 -9999 -9999 -9999 -9999 -9999 -9999 -9999 -9999 -9999 -9999 -9999 -9999 -9999 -9999 -9999 -9999 -9999 -9999 -9999 -9999 -9999 -9999 -9999 -9999 -9999 -9999 -9999 -9999 -9999 -9999 -9999 -9999 -9999 -9999
-9999 -9999 -9999 -9999 -9999 -9999 -9999 -9999 -9999 -9999 -9999 -9999 -9999 -9999 -9999 -9999 -9999 -9999 -9999 -9999 -9999 -9999 -9999 -9999 -9999 -9999 -9999 -9999 -9999 304.2664 304.4995 304.6617 304.7074 304.6837 304.6505 304.6114 304.512 304.3073 304.0389 303.6663 303.3194 302.816 302.0615 301.1646 299.9459 298.8558 297.7448 296.8241 296.1629 295.5884 295.1432 294.4853 293.7052 293.3063 293.0762 292.7337 292.246 292.4296 293.095 294.256 295.2777 296.4675 297.8394 299.199 300.7307 302.1263 303.9975 305.9014 307.4884 309.3495 311.0517 312.9017 314.6544 316.3008 318.4732 320.3105 322.054 323.5225 324.7638 326.1181 327.1768 328.2085 329.1229 329.9237 330.8878 331.7346 332.583 333.3184 333.9199 334.5406 335.0187 335.5075 336.007 336.5056 337.1301 337.701 338.3523 339.0321 339.6655 340.3642 340.8903 341.4035 341.9013 342.3717 342.9433 343.4414 343.9713 344.4701 344.9074 345.4351 345.9553 346.5327 347.0496 347.4398 -9999 -9999 -9999 -9999 -9999 -9999 -9999 -9999 -9999 -9999 -9999 -9999 -9999 -9999 -9999 -9999 -9999 -9999 -9999 -9999 -9999 -9999 -9999 -9999 -9999 -9999 -9999 -9999 -9999 -9999 -9999 -9999 -9999 -9999 -9999 -9999 -9999 -9999 -9999 -9999 -9999 -9999 -9999 -9999 -9999 -9999
-9999 -9999 -9999 -9999 -9999 -9999 -9999 -9999 -9999 -9999 -9999 -9999 -9999 -9999 -9999 -9999 -9999 -9999 -9999 -9999 -9999 -9999 -9999 -9999 -9999 -9999 -9999 -9999 -9999 305.0902 305.3771 305.5689 305.6062 305.5408 305.4593 305.449 305.533 305.6248 305.5067 305.0189 304.4999 303.7476 302.8339 301.8641 300.5881 299.4572 298.3123 297.3331 296.5971 295.9356 295.4609 294.9451 294.4078 293.9936 293.5966 293.2385 292.7699 292.5351 293.0321 294.1696 295.2374 296.4082 297.7217 299.001 300.3642 301.4673 302.99 304.7837 306.3796 308.3582 310.0744 311.7999 313.3879 314.912 316.9757 318.8308 320.6574 322.235 323.5759 324.9815 326.0212 327.0131 327.9032 328.6831 329.611 330.4383 331.2817 332.026 332.6667 333.3862 333.9764 334.5806 335.1674 335.7351 336.4565 337.1314 337.9034 338.6856 339.3844 340.1161 340.6234 341.1208 341.64 342.1513 342.7753 343.3045 343.8488 344.3434 344.7647 345.2548 345.7137 346.2184 346.6689 347.0103 -9999 -9999 -9999 -9999 -9999 -9999 -9999 -9999 -9999 -9999 -9999 -9999 -9999 -9999 -9999 -9999 -9999 -9999 -9999 -9999 -9999 -9999 -9999 -9999 -9999 -9999 -9999 -9999 -9999 -9999 -9999 -9999 -9999 -9999 -9999 -9999 -9999 -9999 -9999 -9999 -9999 -9999 -9999 -9999 -9999 -9999
-9999 -9999 -9999 -9999 -9999 -9999 -9999 -9999 -9999 -9999 -9999 -9999 -9999 -9999 -9999 -9999 -9999 -9999 -9999 -9999 -9999 -9999 -9999 -9999 -9999 -9999 -9999 -9999 -9999 -9999 306.2635 306.5362 306.6173 306.5372 306.3772 306.3704 306.6859 307.3078 307.5923 307.0567 306.055 304.765 303.6167 302.5287 301.1547 299.9652 298.7677 297.7151 296.8828 296.0995 295.5705 295.1153 294.7746 294.4199 294.0489 293.7802 293.3284 292.7358 293.1534 294.3235 295.3448 296.4866 297.7694 298.9962 300.3169 301.3044 302.4294 303.88 305.5077 307.7194 309.4967 311.1271 312.5641 313.9232 315.6912 317.3453 319.1636 320.8856 322.3334 323.7857 324.8499 325.8838 326.8232 327.6294 328.544 329.3273 330.1279 330.8463 331.4963 332.3162 333.0392 333.7848 334.4777 335.1076 335.9059 336.6817 337.5679 338.4255 339.1481 339.8587 340.3478 340.8499 341.4082 341.9766 342.6635 343.223 343.7756 344.2661 344.6812 345.1484 345.5571 345.9921 346.3697 346.6515 346.8809 -9999 -9999 -9999 -9999 -9999 -9999 -9999 -9999 -9999 -9999 -9999 -9999 -9999 -9999 -9999 -9999 -9999 -9999 -9999 -9999 -9999 -9999 -9999 -9999 -9999 -9999 -9999 -9999 -9999 -9999 -9999 -9999 -9999 -9999 -9999 -9999 -9999 -9999 -9999 -9999 -9999 -9999 -9999 -9999 -9999
-9999 -9999 -9999 -9999 -9999 -9999 -9999 -9999 -9999 -9999 -9999 -9999 -9999 -9999 -9999 -9999 -9999 -9999 -9999 -9999 -9999 -9999 -9999 -9999 -9999 -9999 -9999 -9999 -9999 -9999 307.3894 307.8349 308.1128 308.1441 307.9939 308.0075 308.4351 309.5721 310.4787 310.0624 308.421 306.39 304.7685 303.4023 301.8447 300.5609 299.2656 298.0932 297.1247 296.2013 295.6334 295.2699 295.0425 294.7894 294.482 294.1913 293.7176 293.3115 293.7152 294.6883 295.62 296.8403 298.128 299.2325 300.4521 301.4816 302.6007 303.8404 305.2593 307.4642 309.1523 310.6169 311.8624 313.0044 314.4176 315.7607 317.4317 319.1779 320.6802 322.181 323.3185 324.4533 325.5067 326.3896 327.3354 328.1026 328.8744 329.5838 330.2477 331.1789 332.0512 332.9713 333.8141 334.5437 335.4352 336.3268 337.3324 338.2484 338.9634 339.6104 340.0569 340.5516 341.173 341.8243 342.5877 343.1804 343.7411 344.2211 344.6219 345.062 345.4243 345.7818 346.0685 346.2649 346.4139 -9999 -9999 -9999 -9999 -9999 -9999 -9999 -9999 -9999 -9999 -9999 -9999 -9999 -9999 -9999 -9999 -9999 -9999 -9999 -9999 -9999 -9999 -9999 -9999 -9999 -9999 -9999 -9999 -9999 -9999 -9999 -9999 -9999 -9999 -9999 -9999 -9999 -9999 -9999 -9999 -9999 -9999 -9999 -9999 -9999
-9999 -9999 -9999 -9999 -9999 -9999 -9999 -9999 -9999 -9999 -9999 -9999 -9999 -9999 -9999 -9999 -9999 -9999 -9999 -9999 -9999 -9999 -9999 -9999 -9999 -9999 -9999 -9999 -9999 -9999 -9999 309.0565 309.6485 309.9657 310.0777 310.3231 310.9353 312.0056 312.7754 312.1884 310.4305 308.1133 306.0037 304.2961 302.5338 301.1421 299.7262 298.4136 297.3228 296.3124 295.7424 295.4453 295.2773 295.0634 294.7471 294.4117 293.9914 293.7741 294.0995 294.9254 295.9978 297.4681 298.7658 299.6649 300.6183 301.6736 302.9871 304.3296 305.6683 307.5196 309.0016 310.3322 311.4477 312.4675 313.6754 314.8098 316.2016 317.6869 319.0824 320.6563 321.8867 323.0829 324.2242 325.2189 326.2881 327.1071 327.9063 328.6611 329.3884 330.3755 331.3314 332.3875 333.3784 334.2363 335.2558 336.2233 337.2894 338.2412 338.9598 339.5703 339.9651 340.4225 341.0814 341.7823 342.5746 343.17 343.7223 344.1871 344.5706 344.9865 345.3176 345.6239 345.8383 345.956 346.0196 -9999 -9999 -9999 -9999 -9999 -9999 -9999 -9999 -9999 -9999 -9999 -9999 -9999 -9999 -9999 -9999 -9999 -9999 -9999 -9999 -9999 -9999 -9999 -9999 -9999 -9999 -9999 -9999 -9999 -9999 -9999 -9999 -9999 -9999 -9999 -9999 -9999 -9999 -9999 -9999 -9999 -9999 -9999 -9999 -9999
-9999 -9999 -9999 -9999 -9999 -9999 -9999 -9999 -9999 -9999 -9999 -9999 -9999 -9999 -9999 -9999 -9999 -9999 -9999 -9999 -9999 -9999 -9999 -9999 -9999 -9999 -9999 -9999 -9999 -9999 -9999 -9999 311.4974 312.2632 312.9903 313.6204 314.4925 315.1259 315.1006 314.0544 312.2791 309.8935 307.4711 305.4507 303.4462 301.8956 300.2985 298.7911 297.5595 296.508 296.0202 295.7957 295.6272 295.3651 295.0083 294.6633 294.2953 294.1066 294.3481 295.2678 296.6862 298.4575 299.662 300.2341 300.88 301.8248 303.1728 304.6421 306.0216 307.6202 308.9342 310.1953 311.2661 312.2136 313.2803 314.2094 315.2582 316.3297 317.4232 318.9362 320.2465 321.4908 322.709 323.8545 325.1292 326.0576 326.9453 327.7983 328.6149 329.6697 330.6906 331.8622 333.0178 334.0443 335.2221 336.2607 337.3705 338.3666 339.1247 339.7434 340.0973 340.5113 341.1571 341.8445 342.6074 343.1707 343.6873 344.1222 344.483 344.8743 345.1809 345.4523 345.6079 345.6493 345.6156 -9999 -9999 -9999 -9999 -9999 -9999 -9999 -9999 -9999 -9999 -9999 -9999 -9999 -9999 -9999 -9999 -9999 -9999 -9999 -9999 -9999 -9999 -9999 -9999 -9999 -9999 -9999 -9999 -9999 -9999 -9999 -9999 -9999 -9999 -9999 -9999 -9999 -9999 -9999 -9999 -9999 -9999 -9999 -9999 -9999
-9999 -9999 -9999 -9999 -9999 -9999 -9999 -9999 -9999 -9999 -9999 -9999 -9999 -9999 -9999 -9999 -9999 -9999 -9999 -9999 -9999 -9999 -9999 -9999 -9999 -9999 -9999 -9999 -9999 -9999 -9999 -9999 313.5878 314.7123 315.8814 316.6165 317.1776 317.2899 316.8411 315.5885 313.8882 311.5045 308.9463 306.778 304.5761 302.8286 300.9828 299.2331 297.8463 296.8206 296.4982 296.347 296.0961 295.7524 295.3395 295.0103 294.7197 294.6227 294.8302 295.8369 297.5992 299.427 300.2859 300.5743 301.0456 301.8726 303.1618 304.6917 306.144 307.7499 309.0116 310.2521 311.3542 312.3027 313.3533 314.218 315.0603 315.7351 316.3451 317.4591 318.6849 320.0005 321.2796 322.5426 323.9665 325.0301 326.0609 327.0387 327.9485 329.0868 330.1605 331.4111 332.7235 333.935 335.2848 336.3734 337.5126 338.5745 339.4196 340.1058 340.4554 340.8382 341.3931 341.9836 342.6589 343.1651 343.6276 344.0144 344.3384 344.6978 344.9831 345.2344 345.3646 345.366 345.2773 -9999 -9999 -9999 -9999 -9999 -9999 -9999 -9999 -9999 -9999 -9999 -9999 -9999 -9999 -9999 -9999 -9999 -9999 -9999 -9999 -9999 -9999 -9999 -9999 -9999 -9999 -9999 -9999 -9999 -9999 -9999 -9999 -9999 -9999 -9999 -9999 -9999 -9999 -9999 -9999 -9999 -9999 -9999 -9999 -9999
-9999 -9999 -9999 -9999 -9999 -9999 -9999 -9999 -9999 -9999 -9999 -9999 -9999 -9999 -9999 -9999 -9999 -9999 -9999 -9999 -9999 -9999 -9999 -9999 -9999 -9999 -9999 -9999 -9999 -9999 -9999 -9999 -9999 316.8968 318.0535 318.6115 318.8174 318.603 318.0076 316.761 315.1713 312.8466 310.2672 308.0735 305.7786 303.8586 301.7335 299.7399 298.2321 297.2967 297.1425 296.9763 296.6021 296.1778 295.7134 295.4285 295.297 295.3644 295.4731 296.4988 298.394 299.9893 300.4512 300.5658 300.9411 301.7656 303.098 304.6964 306.2225 307.9034 309.1831 310.4245 311.5599 312.551 313.6691 314.6009 315.4282 315.8969 316.1696 316.8384 317.8055 319.0226 320.2893 321.5584 323.0272 324.1748 325.3181 326.4002 327.3878 328.5878 329.6957 331.0022 332.4423 333.8111 335.3094 336.436 337.6104 338.7435 339.6802 340.4359 340.8151 341.1852 341.6351 342.1122 342.6841 343.1301 343.5413 343.879 344.1583 344.4733 344.7269 344.9504 345.07 345.0761 345.0041 -9999 -9999 -9999 -9999 -9999 -9999 -9999 -9999 -9999 -9999 -9999 -9999 -9999 -9999 -9999 -9999 -9999 -9999 -9999 -9999 -9999 -9999 -9999 -9999 -9999 -9999 -9999 -9999 -9999 -9999 -9999 -9999 -9999 -9999 -9999 -9999 -9999 -9999 -9999 -9999 -9999 -9999 -9999 -9999 -9999
-9999 -9999 -9999 -9999 -9999 -9999 -9999 -9999 -9999 -9999 -9999 -9999 -9999 -9999 -9999 -9999 -9999 -9999 -9999 -9999 -9999 -9999 -9999 -9999 -9999 -9999 -9999 -9999 -9999 -9999 -9999 -9999 -9999 -9999 319.9337 320.1545 320.0621 319.7221 319.1033 317.9046 316.4119 314.3242 311.9167 309.7227 307.3265 305.2398 302.8546 300.6104 298.9815 298.1274 298.0269 297.7233 297.206 296.7167 296.2671 296.0628 296.0829 296.2927 296.3067 296.8495 298.6361 299.9528 300.2654 300.3098 300.67 301.5876 303.051 304.7362 306.3143 308.0687 309.4305 310.7424 311.9091 312.9379 314.1139 315.052 315.8689 316.368 316.6076 317.0043 317.6456 318.5942 319.7289 320.8753 322.2578 323.4038 324.5936 325.7379 326.7865 328.0376 329.1703 330.5165 332.0477 333.515 335.125 336.3483 337.5939 338.7771 339.7617 340.589 341.0551 341.4641 341.8474 342.2133 342.6564 343.0215 343.3706 343.6568 343.8852 344.1354 344.3356 344.5135 344.6198 344.657 344.6461 -9999 -9999 -9999 -9999 -9999 -9999 -9999 -9999 -9999 -9999 -9999 -9999 -9999 -9999 -9999 -9999 -9999 -9999 -9999 -9999 -9999 -9999 -9999 -9999 -9999 -9999 -9999 -9999 -9999 -9999 -9999 -9999 -9999 -9999 -9999 -9999 -9999 -9999 -9999 -9999 -9999 -9999 -9999 -9999 -9999
-9999 -9999 -9999 -9999 -9999 -9999 -9999 -9999 -9999 -9999 -9999 -9999 -9999 -9999 -9999 -9999 -9999 -9999 -9999 -9999 -9999 -9999 -9999 -9999 -9999 -9999 -9999 -9999 -9999 -9999 -9999 -9999 -9999 -9999 320.9385 321.0779 320.9454 320.6055 320.0107 318.8802 317.4909 315.6282 313.441 311.2588 308.7402 306.5577 304.1042 301.6925 299.8242 298.7362 298.5891 298.2408 297.6894 297.2245 296.8969 296.794 296.8398 297.0012 296.8479 296.9511 298.5839 299.6825 299.9319 300.0607 300.5572 301.5683 303.1128 304.8378 306.3904 308.1287 309.5597 310.9706 312.2093 313.2974 314.4936 315.3974 316.1781 316.7157 317.0525 317.4432 317.9484 318.7099 319.6775 320.671 321.894 322.963 324.1194 325.2651 326.3357 327.6093 328.7534 330.1054 331.6373 333.1331 334.8313 336.149 337.4374 338.6072 339.5737 340.472 341.0565 341.5528 341.9367 342.2414 342.5781 342.8621 343.1484 343.3934 343.5873 343.7878 343.9428 344.0853 344.1871 344.2473 344.2819 344.2906 -9999 -9999 -9999 -9999 -9999 -9999 -9999 -9999 -9999 -9999 -9999 -9999 -9999 -9999 -9999 -9999 -9999 -9999 -9999 -9999 -9999 -9999 -9999 -9999 -9999 -9999 -9999 -9999 -9999 -9999 -9999 -9999 -9999 -9999 -9999 -9999 -9999 -9999 -9999 -9999 -9999 -9999 -9999 -9999
-9999 -9999 -9999 -9999 -9999 -9999 -9999 -9999 -9999 -9999 -9999 -9999 -9999 -9999 -9999 -9999 -9999 -9999 -9999 -9999 -9999 -9999 -9999 -9999 -9999 -9999 -9999 -9999 -9999 -9999 -9999 -9999 -9999 -9999 -9999 321.8293 321.8643 321.5924 321.0578 320.024 318.7344 317.038 315.0297 312.9011 310.3249 308.1399 305.7405 303.2041 300.8494 299.1422 298.9066 298.6428 298.1758 297.8582 297.7765 297.8336 297.8775 297.7016 297.2429 297.333 298.6316 299.4578 299.6841 299.9133 300.5694 301.6916 303.2842 305.0069 306.4782 308.1031 309.5137 311.0258 312.4669 313.713 314.9401 315.7774 316.5048 317.0681 317.4987 317.968 318.4396 319.085 319.8817 320.696 321.7264 322.6789 323.759 324.8766 325.9378 327.2027 328.323 329.6237 331.1023 332.6236 334.4574 335.8495 337.1198 338.2372 339.1844 340.1672 340.8864 341.5057 341.9275 342.1928 342.4235 342.6125 342.823 343.0241 343.1891 343.3535 343.4749 343.5918 343.6929 343.7706 343.8387 343.8753 -9999 -9999 -9999 -9999 -9999 -9999 -9999 -9999 -9999 -9999 -9999 -9999 -9999 -9999 -9999 -9999 -9999 -9999 -9999 -9999 -9999 -9999 -9999 -9999 -9999 -9999 -9999 -9999 -9999 -9999 -9999 -9999 -9999 -9999 -9999 -9999 -9999 -9999 -9999 -9999 -9999 -9999 -9999 -9999
-9999 -9999 -9999 -9999 -9999 -9999 -9999 -9999 -9999 -9999 -9999 -9999 -9999 -9999 -9999 -9999 -9999 -9999 -9999 -9999 -9999 -9999 -9999 -9999 -9999 -9999 -9999 -9999 -9999 -9999 -9999 -9999 -9999 -9999 -9999 322.3657 322.6647 322.557 322.1311 321.1917 319.9913 318.3628 316.4064 314.3669 311.885 309.7799 307.4669 304.8819 302.1892 299.8127 299.1807 298.9589 298.7022 298.6433 298.8255 298.9967 299.0356 298.6246 297.9563 297.82 298.6262 299.3578 299.6688 299.9942 300.7957 301.9719 303.5522 305.2307 306.6694 308.151 309.4046 310.9561 312.7075 314.1967 315.4485 316.1859 316.8476 317.4271 317.9139 318.4543 318.9446 319.5398 320.2085 320.8677 321.7287 322.5646 323.5551 324.6233 325.6479 326.8614 327.9207 329.1248 330.4983 332.0114 333.931 335.364 336.6038 337.6607 338.5939 339.6721 340.531 341.2825 341.7529 341.9944 342.1416 342.2473 342.3857 342.5473 342.6957 342.8505 342.9639 343.0747 343.1798 343.2679 343.3548 343.4102 -9999 -9999 -9999 -9999 -9999 -9999 -9999 -9999 -9999 -9999 -9999 -9999 -9999 -9999 -9999 -9999 -9999 -9999 -9999 -9999 -9999 -9999 -9999 -9999 -9999 -9999 -9999 -9999 -9999 -9999 -9999 -9999 -9999 -9999 -9999 -9999 -9999 -9999 -9999 -9999 -9999 -9999 -9999 -9999
-9999 -9999 -9999 -9999 -9999 -9999 -9999 -9999 -9999 -9999 -9999 -9999 -9999 -9999 -9999 -9999 -9999 -9999 -9999 -9999 -9999 -9999 -9999 -9999 -9999 -9999 -9999 -9999 -9999 -9999 -9999 -9999 -9999 -9999 -9999 -9999 323.2986 323.3823 323.0947 322.2646 321.1281 319.5221 317.567 315.5842 313.2201 311.2161 308.964 306.3945 303.7433 300.9592 299.791 299.4265 299.3304 299.4455 299.7672 299.9541 299.9292 299.4364 298.69 298.4094 299.1197 299.6285 299.8463 300.2178 301.1394 302.3383 303.9151 305.6194 307.1146 308.512 309.5614 311.0871 313.031 314.6616 315.9001 316.5749 317.1964 317.7774 318.2836 318.8568 319.3588 319.9242 320.5045 321.0623 321.8083 322.554 323.4648 324.4702 325.4427 326.5946 327.5935 328.7214 330.0081 331.4351 333.2655 334.6929 335.9467 336.9495 337.8481 338.9805 339.9752 340.8602 341.367 341.6043 341.7194 341.7811 341.8785 342.0215 342.1698 342.3341 342.4577 342.5795 342.6936 342.7896 342.8857 342.9512 -9999 -9999 -9999 -9999 -9999 -9999 -9999 -9999 -9999 -9999 -9999 -9999 -9999 -9999 -9999 -9999 -9999 -9999 -9999 -9999 -9999 -9999 -9999 -9999 -9999 -9999 -9999 -9999 -9999 -9999 -9999 -9999 -9999 -9999 -9999 -9999 -9999 -9999 -9999 -9999 -9999 -9999 -9999 -9999
-9999 -9999 -9999 -9999 -9999 -9999 -9999 -9999 -9999 -9999 -9999 -9999 -9999 -9999 -9999 -9999 -9999 -9999 -9999 -9999 -9999 -9999 -9999 -9999 -9999 -9999 -9999 -9999 -9999 -9999 -9999 -9999 -9999 -9999 -9999 -9999 323.9196 324.2366 324.1533 323.4958 322.4308 320.8456 318.8904 316.9193 314.6171 312.7121 310.601 308.2527 305.8769 303.0079 301.127 300.274 300.1145 300.2427 300.5806 300.77 300.7133 300.2245 299.4982 299.2653 299.9202 300.1797 300.3017 300.7098 301.7004 302.9009 304.4869 306.3022 308.0108 309.57 310.4806 311.9146 313.7018 315.1594 316.3514 317.0405 317.6519 318.215 318.7167 319.2854 319.7655 320.2891 320.8074 321.2994 321.9595 322.6248 323.4467 324.3626 325.2597 326.3395 327.2808 328.3473 329.5398 330.7942 332.407 333.7317 334.9484 335.908 336.7238 337.7652 338.7878 339.8059 340.3961 340.7205 340.9209 341.0121 341.1379 341.3071 341.4781 341.6723 341.8242 341.9749 342.1112 342.2192 342.3166 342.3814 -9999 -9999 -9999 -9999 -9999 -9999 -9999 -9999 -9999 -9999 -9999 -9999 -9999 -9999 -9999 -9999 -9999 -9999 -9999 -9999 -9999 -9999 -9999 -9999 -9999 -9999 -9999 -9999 -9999 -9999 -9999 -9999 -9999 -9999 -9999 -9999 -9999 -9999 -9999 -9999 -9999 -9999 -9999 -9999
-9999 -9999 -9999 -9999 -9999 -9999 -9999 -9999 -9999 -9999 -9999 -9999 -9999 -9999 -9999 -9999 -9999 -9999 -9999 -9999 -9999 -9999 -9999 -9999 -9999 -9999 -9999 -9999 -9999 -9999 -9999 -9999 -9999 -9999 -9999 -9999 324.3854 324.8899 325.0003 324.5344 323.572 322.0348 320.0739 318.0853 315.7538 313.8532 311.8526 309.7408 307.6199 304.9369 302.7843 301.2616 300.7969 300.8303 301.1079 301.2977 301.2709 300.8369 300.0719 299.6149 300.3521 300.7254 300.9258 301.3822 302.351 303.5016 305.0345 306.8578 308.6963 310.569 311.7188 313.1334 314.5709 315.7112 316.7495 317.4331 318.0509 318.6078 319.1 319.6421 320.0775 320.5518 321.0412 321.5072 322.12 322.7272 323.4748 324.3143 325.1472 326.1586 327.0487 328.0578 329.1575 330.2711 331.6761 332.8528 333.9901 334.9225 335.6494 336.471 337.3272 338.2693 338.9624 339.4726 339.8952 340.136 340.3826 340.6223 340.8303 341.0565 341.2425 341.4312 341.5951 341.713 341.8028 341.8581 -9999 -9999 -9999 -9999 -9999 -9999 -9999 -9999 -9999 -9999 -9999 -9999 -9999 -9999 -9999 -9999 -9999 -9999 -9999 -9999 -9999 -9999 -9999 -9999 -9999 -9999 -9999 -9999 -9999 -9999 -9999 -9999 -9999 -9999 -9999 -9999 -9999 -9999 -9999 -9999 -9999 -9999 -9999 -9999
-9999 -9999 -9999 -9999 -9999 -9999 -9999 -9999 -9999 -9999 -9999 -9999 -9999 -9999 -9999 -9999 -9999 -9999 -9999 -9999 -9999 -9999 -9999 -9999 -9999 -9999 -9999 -9999 -9999 -9999 -9999 -9999 -9999 -9999 -9999 -9999 -9999 325.6019 325.9143 325.6679 324.8481 323.3878 321.4149 319.3738 316.9544 315.0124 313.0797 311.1697 309.3012 306.9075 304.7566 302.731 301.8024 301.6269 301.763 301.8772 301.8343 301.4966 300.8512 300.2186 300.81 301.2585 301.6437 302.2023 303.1681 304.2527 305.6695 307.3291 309.0112 311.066 312.7925 314.4205 315.5836 316.4143 317.2463 317.8742 318.4847 319.0451 319.5311 320.0393 320.4281 320.8555 321.3078 321.7458 322.3102 322.8581 323.5298 324.2881 325.0473 325.9734 326.7955 327.7275 328.7254 329.7054 330.907 331.9391 332.989 333.8774 334.5344 335.1588 335.7659 336.442 337.0796 337.7618 338.5074 339.0197 339.4692 339.8228 340.0871 340.3531 340.5788 340.8145 341.014 341.1378 341.2072 341.2432 -9999 -9999 -9999 -9999 -9999 -9999 -9999 -9999 -9999 -9999 -9999 -9999 -9999 -9999 -9999 -9999 -9999 -9999 -9999 -9999 -9999 -9999 -9999 -9999 -9999 -9999 -9999 -9999 -9999 -9999 -9999 -9999 -9999 -9999 -9999 -9999 -9999 -9999 -9999 -9999 -9999 -9999 -9999 -9999
-9999 -9999 -9999 -9999 -9999 -9999 -9999 -9999 -9999 -9999 -9999 -9999 -9999 -9999 -9999 -9999 -9999 -9999 -9999 -9999 -9999 -9999 -9999 -9999 -9999 -9999 -9999 -9999 -9999 -9999 -9999 -9999 -9999 -9999 -9999 -9999 -9999 326.4248 326.9319 326.85 326.1289 324.7267 322.7451 320.6541 318.1721 316.1841 314.2227 312.4029 310.7245 308.5471 306.5056 304.4723 303.2602 302.8434 302.7011 302.6201 302.4542 302.1302 301.669 300.9854 301.0263 301.5846 302.2408 302.9527 303.9879 305.0559 306.3783 307.8552 309.3525 311.4817 313.4901 315.2332 316.3597 317.0984 317.8079 318.3635 318.9319 319.4709 319.9447 320.4382 320.8055 321.2005 321.6049 322 322.5078 322.9986 323.5951 324.2672 324.9399 325.7687 326.505 327.3411 328.236 329.1074 330.1708 331.1086 332.0988 332.9529 333.5854 334.1517 334.5676 334.9813 335.4712 336.1655 337.1074 337.8451 338.4885 338.9672 339.3077 339.6322 339.8917 340.163 340.3903 340.5093 340.5465 340.5534 340.5682 -9999 -9999 -9999 -9999 -9999 -9999 -9999 -9999 -9999 -9999 -9999 -9999 -9999 -9999 -9999 -9999 -9999 -9999 -9999 -9999 -9999 -9999 -9999 -9999 -9999 -9999 -9999 -9999 -9999 -9999 -9999 -9999 -9999 -9999 -9999 -9999 -9999 -9999 -9999 -9999 -9999 -9999 -9999
-9999 -9999 -9999 -9999 -9999 -9999 -9999 -9999 -9999 -9999 -9999 -9999 -9999 -9999 -9999 -9999 -9999 -9999 -9999 -9999 -9999 -9999 -9999 -9999 -9999 -9999 -9999 -9999 -9999 -9999 -9999 -9999 -9999 -9999 -9999 -9999 -9999 -9999 327.9704 327.9733 327.2636 325.8673 323.8885 321.7858 319.2743 317.2302 315.1896 313.3553 311.7448 309.7517 307.9471 306.158 304.9266 304.2939 303.8069 303.4932 303.1589 302.7448 302.2343 301.5062 301.4059 301.9655 302.7036 303.5056 304.65 305.7733 307.1118 308.5858 310.1105 312.2549 314.1389 315.7881 316.9128 317.6614 318.3466 318.8567 319.3705 319.8567 320.3006 320.7943 321.1609 321.5275 321.887 322.2391 322.6904 323.1257 323.6508 324.2394 324.8291 325.5519 326.1868 326.9213 327.7299 328.5363 329.5397 330.4384 331.3903 332.2145 332.8323 333.3717 333.7157 334.0528 334.4941 335.0857 336.0184 336.8323 337.5774 338.1479 338.5602 338.9496 339.2414 339.5276 339.7487 339.8562 339.8736 339.8512 339.8249 -9999 -9999 -9999 -9999 -9999 -9999 -9999 -9999 -9999 -9999 -9999 -9999 -9999 -9999 -9999 -9999 -9999 -9999 -9999 -9999 -9999 -9999 -9999 -9999 -9999 -9999 -9999 -9999 -9999 -9999 -9999 -9999 -9999 -9999 -9999 -9999 -9999 -9999 -9999 -9999 -9999 -9999 -9999
-9999 -9999 -9999 -9999 -9999 -9999 -9999 -9999 -9999 -9999 -9999 -9999 -9999 -9999 -9999 -9999 -9999 -9999 -9999 -9999 -9999 -9999 -9999 -9999 -9999 -9999 -9999 -9999 -9999 -9999 -9999 -9999 -9999 -9999 -9999 -9999 -9999 -9999 329.2553 329.2616 328.4823 327.02 325.0347 322.9615 320.4581 318.3564 316.2064 314.2948 312.6973 310.9142 309.45 308.0144 306.8639 306.0254 305.2264 304.6899 304.1725 303.6189 303.0836 302.6025 302.5018 302.6468 303.1472 303.9528 305.2448 306.5551 308.105 309.7719 311.4263 313.4745 315.0981 316.5091 317.5552 318.299 318.9799 319.4628 319.9304 320.3633 320.765 321.2225 321.5623 321.8937 322.2101 322.5105 322.893 323.2602 323.7013 324.1883 324.6675 325.2453 325.7487 326.3568 327.09 327.8674 328.8703 329.7617 330.6817 331.4622 332.0484 332.5662 332.9155 333.2816 333.7288 334.2664 335.0752 335.8272 336.5808 337.2089 337.6874 338.1425 338.4649 338.7501 338.9431 339.0332 339.0361 338.9774 338.8817 -9999 -9999 -9999 -9999 -9999 -9999 -9999 -9999 -9999 -9999 -9999 -9999 -9999 -9999 -9999 -9999 -9999 -9999 -9999 -9999 -9999 -9999 -9999 -9999 -9999 -9999 -9999 -9999 -9999 -9999 -9999 -9999 -9999 -9999 -9999 -9999 -9999 -9999 -9999 -9999 -9999 -9999 -9999
-9999 -9999 -9999 -9999 -9999 -9999 -9999 -9999 -9999 -9999 -9999 -9999 -9999 -9999 -9999 -9999 -9999 -9999 -9999 -9999 -9999 -9999 -9999 -9999 -9999 -9999 -9999 -9999 -9999 -9999 -9999 -9999 -9999 -9999 -9999 -9999 -9999 -9999 -9999 330.1809 329.343 327.8253 325.8429 323.8201 321.3699 319.264 317.0726 315.1062 313.5017 311.8344 310.5514 309.3065 308.2265 307.333 306.3907 305.7163 305.0851 304.4799 303.9962 303.5738 303.314 303.1656 303.4923 304.2631 305.6959 307.2501 309.0654 310.9089 312.6122 314.527 315.9539 317.2061 318.1834 318.9031 319.551 320.002 320.455 320.8675 321.2299 321.619 321.9102 322.2009 322.4746 322.7275 323.0496 323.3618 323.7336 324.1322 324.5121 324.9595 325.3491 325.8504 326.5388 327.3179 328.3285 329.2078 330.1024 330.8504 331.4086 331.9153 332.2888 332.697 333.1662 333.6846 334.4129 335.0964 335.8225 336.4736 336.9884 337.4773 337.8083 338.0849 338.2642 338.3453 338.3323 338.2381 338.0756 -9999 -9999 -9999 -9999 -9999 -9999 -9999 -9999 -9999 -9999 -9999 -9999 -9999 -9999 -9999 -9999 -9999 -9999 -9999 -9999 -9999 -9999 -9999 -9999 -9999 -9999 -9999 -9999 -9999 -9999 -9999 -9999 -9999 -9999 -9999 -9999 -9999 -9999 -9999 -9999 -9999 -9999 -9999
-9999 -9999 -9999 -9999 -9999 -9999 -9999 -9999 -9999 -9999 -9999 -9999 -9999 -9999 -9999 -9999 -9999 -9999 -9999 -9999 -9999 -9999 -9999 -9999 -9999 -9999 -9999 -9999 -9999 -9999 -9999 -9999 -9999 -9999 -9999 -9999 -9999 -9999 -9999 330.8579 330.0147 328.517 326.5959 324.6469 322.2724 320.2085 318.0333 316.0307 314.3989 312.7718 311.5472 310.3698 309.3755 308.5316 307.5009 306.6954 305.9602 305.3779 304.9671 304.5169 304.0934 303.7978 303.9948 304.6789 306.274 308.1102 310.1537 312.0709 313.7545 315.5467 316.8435 318.012 318.9395 319.6218 320.2223 320.6355 321.0617 321.4401 321.7534 322.0705 322.2968 322.524 322.7424 322.947 323.2103 323.4644 323.762 324.071 324.3561 324.681 324.9738 325.3782 326.0194 326.7876 327.7744 328.6133 329.4572 330.1782 330.7175 331.214 331.6082 332.0487 332.5328 333.0371 333.7202 334.3683 335.0853 335.7651 336.3133 336.8189 337.1419 337.404 337.5772 337.6591 337.6348 337.5057 337.2733 -9999 -9999 -9999 -9999 -9999 -9999 -9999 -9999 -9999 -9999 -9999 -9999 -9999 -9999 -9999 -9999 -9999 -9999 -9999 -9999 -9999 -9999 -9999 -9999 -9999 -9999 -9999 -9999 -9999 -9999 -9999 -9999 -9999 -9999 -9999 -9999 -9999 -9999 -9999 -9999 -9999 -9999 -9999
-9999 -9999 -9999 -9999 -9999 -9999 -9999 -9999 -9999 -9999 -9999 -9999 -9999 -9999 -9999 -9999 -9999 -9999 -9999 -9999 -9999 -9999 -9999 -9999 -9999 -9999 -9999 -9999 -9999 -9999 -9999 -9999 -9999 -9999 -9999 -9999 -9999 -9999 -9999 331.2387 330.4133 329.0335 327.2415 325.3863 323.0987 321.1095 318.9879 316.9697 315.2914 313.6186 312.378 311.1941 310.2204 309.4338 308.4029 307.5453 306.7634 306.1772 305.7514 305.2632 304.8485 304.5486 304.643 305.3385 307.0755 309.0328 311.1321 313.0251 314.675 316.4386 317.734 318.8872 319.7661 320.3954 320.947 321.3212 321.683 321.9985 322.2569 322.5016 322.662 322.8231 322.9867 323.1498 323.3609 323.561 323.7917 324.0287 324.2469 324.507 324.7625 325.1271 325.6982 326.3883 327.2825 328.0433 328.8118 329.4847 330.0051 330.5106 330.9224 331.3726 331.8481 332.3333 332.9941 333.638 334.3795 335.1171 335.7198 336.2394 336.5526 336.808 336.9849 337.0736 337.0481 336.8995 336.6217 -9999 -9999 -9999 -9999 -9999 -9999 -9999 -9999 -9999 -9999 -9999 -9999 -9999 -9999 -9999 -9999 -9999 -9999 -9999 -9999 -9999 -9999 -9999 -9999 -9999 -9999 -9999 -9999 -9999 -9999 -9999 -9999 -9999 -9999 -9999 -9999 -9999 -9999 -9999 -9999 -9999 -9999 -9999
-9999 -9999 -9999 -9999 -9999 -9999 -9999 -9999 -9999 -9999 -9999 -9999 -9999 -9999 -9999 -9999 -9999 -9999 -9999 -9999 -9999 -9999 -9999 -9999 -9999 -9999 -9999 -9999 -9999 -9999 -9999 -9999 -9999 -9999 -9999 -9999 -9999 -9999 -9999 331.4655 330.6834 329.4265 327.7648 326.0072 323.8079 321.8897 319.8186 317.7838 316.0513 314.319 313.0793 311.9221 310.9348 310.126 309.1331 308.3024 307.5184 306.8913 306.3922 305.8469 305.4163 305.0509 305.2696 306.1813 307.925 309.7971 311.8203 313.7094 315.3854 317.225 318.5831 319.7419 320.5567 321.1193 321.6133 321.9393 322.2406 322.494 322.6881 322.8565 322.9653 323.0723 323.19 323.3142 323.4816 323.6416 323.8264 324.0195 324.2046 324.4454 324.6985 325.059 325.5627 326.1422 326.903 327.5643 328.2472 328.8613 329.362 329.8846 330.3114 330.7566 331.1998 331.6525 332.2832 332.9203 333.6879 334.4934 335.1742 335.7378 336.0752 336.3536 336.5424 336.6346 336.6118 336.4611 336.1762 -9999 -9999 -9999 -9999 -9999 -9999 -9999 -9999 -9999 -9999 -9999 -9999 -9999 -9999 -9999 -9999 -9999 -9999 -9999 -9999 -9999 -9999 -9999 -9999 -9999 -9999 -9999 -9999 -9999 -9999 -9999 -9999 -9999 -9999 -9999 -9999 -9999 -9999 -9999 -9999 -9999 -9999 -9999
-9999 -9999 -9999 -9999 -9999 -9999 -9999 -9999 -9999 -9999 -9999 -9999 -9999 -9999 -9999 -9999 -9999 -9999 -9999 -9999 -9999 -9999 -9999 -9999 -9999 -9999 -9999 -9999 -9999 -9999 -9999 -9999 -9999 -9999 -9999 -9999 -9999 -9999 -9999 331.6955 330.9745 329.837 328.3296 326.6953 324.5895 322.7033 320.6301 318.5824 316.8134 315.0501 313.8661 312.7991 311.8566 311.0276 310.0619 309.2863 308.5153 307.8329 307.2533 306.619 306.1432 305.8526 306.2086 307.1398 308.7893 310.4965 312.4007 314.3317 316.1436 318.1609 319.584 320.7053 321.4178 321.8947 322.3116 322.5888 322.8319 323.0137 323.1317 323.2177 323.2692 323.3245 323.3954 323.4775 323.6007 323.7273 323.8803 324.0524 324.2312 324.4789 324.7419 325.0936 325.5212 325.9742 326.5656 327.101 327.6828 328.2373 328.7164 329.2421 329.6715 330.0995 330.4962 330.8856 331.4341 332.0226 332.784 333.6397 334.4138 335.1474 335.6121 335.9711 336.1803 336.2681 336.2411 336.1059 335.8596 335.5359 -9999 -9999 -9999 -9999 -9999 -9999 -9999 -9999 -9999 -9999 -9999 -9999 -9999 -9999 -9999 -9999 -9999 -9999 -9999 -9999 -9999 -9999 -9999 -9999 -9999 -9999 -9999 -9999 -9999 -9999 -9999 -9999 -9999 -9999 -9999 -9999 -9999 -9999 -9999 -9999 -9999 -9999
-9999 -9999 -9999 -9999 -9999 -9999 -9999 -9999 -9999 -9999 -9999 -9999 -9999 -9999 -9999 -9999 -9999 -9999 -9999 -9999 -9999 -9999 -9999 -9999 -9999 -9999 -9999 -9999 -9999 -9999 -9999 -9999 -9999 -9999 -9999 -9999 -9999 -9999 -9999 331.9427 331.2722 330.2169 328.8262 327.293 325.2527 323.3577 321.2394 319.18 317.4303 315.6902 314.5558 313.5866 312.7324 311.9634 311.0719 310.3291 309.5477 308.8222 308.201 307.5183 307.022 306.7387 306.9687 307.7767 309.3557 310.9519 312.8047 314.807 316.7909 318.9837 320.383 321.3919 322.0206 322.439 322.807 323.0565 323.2602 323.3877 323.4499 323.4766 323.4876 323.5077 323.5453 323.5982 323.69 323.7963 323.9366 324.1092 324.2975 324.56 324.8261 325.1535 325.5179 325.8842 326.357 326.8023 327.3112 327.8256 328.2929 328.8203 329.2457 329.6592 330.0183 330.336 330.7612 331.2492 331.9514 332.8321 333.7123 334.6722 335.313 335.7677 335.993 336.0705 336.0356 335.9214 335.73 335.488 -9999 -9999 -9999 -9999 -9999 -9999 -9999 -9999 -9999 -9999 -9999 -9999 -9999 -9999 -9999 -9999 -9999 -9999 -9999 -9999 -9999 -9999 -9999 -9999 -9999 -9999 -9999 -9999 -9999 -9999 -9999 -9999 -9999 -9999 -9999 -9999 -9999 -9999 -9999 -9999 -9999 -9999
-9999 -9999 -9999 -9999 -9999 -9999 -9999 -9999 -9999 -9999 -9999 -9999 -9999 -9999 -9999 -9999 -9999 -9999 -9999 -9999 -9999 -9999 -9999 -9999 -9999 -9999 -9999 -9999 -9999 -9999 -9999 -9999 -9999 -9999 -9999 -9999 -9999 -9999 -9999 332.3152 331.714 330.736 329.4227 327.9618 325.9776 324.0765 321.9102 319.8275 318.1099 316.434 315.3489 314.4673 313.7431 313.103 312.3495 311.6639 310.878 310.1071 309.4581 308.7473 308.1935 307.7725 307.8378 308.4439 309.8581 311.3902 313.2552 315.3736 317.5129 319.7864 321.1002 321.976 322.5187 322.8915 323.2333 323.4612 323.6365 323.7156 323.7259 323.7003 323.6785 323.6678 323.6769 323.705 323.7751 323.8674 324.0035 324.1833 324.386 324.6649 324.9286 325.223 325.5186 325.8052 326.1837 326.5633 327.0202 327.5099 327.9773 328.5225 328.957 329.3625 329.6795 329.9126 330.1753 330.5018 331.082 331.9974 333.027 334.2399 335.078 335.6317 335.8785 335.9494 335.9084 335.8157 335.681 335.5168 -9999 -9999 -9999 -9999 -9999 -9999 -9999 -9999 -9999 -9999 -9999 -9999 -9999 -9999 -9999 -9999 -9999 -9999 -9999 -9999 -9999 -9999 -9999 -9999 -9999 -9999 -9999 -9999 -9999 -9999 -9999 -9999 -9999 -9999 -9999 -9999 -9999 -9999 -9999 -9999 -9999 -9999
-9999 -9999 -9999 -9999 -9999 -9999 -9999 -9999 -9999 -9999 -9999 -9999 -9999 -9999 -9999 -9999 -9999 -9999 -9999 -9999 -9999 -9999 -9999 -9999 -9999 -9999 -9999 -9999 -9999 -9999 -9999 -9999 -9999 -9999 -9999 -9999 -9999 -9999 -9999 332.8212 332.3023 331.3872 330.1056 328.6707 326.7127 324.8088 322.5984 320.4771 318.7744 317.1866 316.1614 315.3313 314.7207 314.2479 313.6534 313.0793 312.3942 311.6304 310.9138 310.1414 309.5171 308.7951 308.3792 308.8134 310.2163 311.7942 313.785 316.0903 318.3062 320.4256 321.593 322.3678 322.848 323.1932 323.5299 323.7523 323.906 323.9457 323.9158 323.8568 323.8145 323.785 323.7738 323.7874 323.8469 323.9342 324.0698 324.2562 324.4674 324.7556 325.0183 325.2802 325.5011 325.7171 326.0331 326.385 326.838 327.347 327.8466 328.4316 328.8854 329.2863 329.5628 329.723 329.8483 330.0209 330.4526 331.3927 332.5555 333.9273 334.8766 335.5357 335.8277 335.9067 335.8672 335.7908 335.6947 335.5815 -9999 -9999 -9999 -9999 -9999 -9999 -9999 -9999 -9999 -9999 -9999 -9999 -9999 -9999 -9999 -9999 -9999 -9999 -9999 -9999 -9999 -9999 -9999 -9999 -9999 -9999 -9999 -9999 -9999 -9999 -9999 -9999 -9999 -9999 -9999 -9999 -9999 -9999 -9999 -9999 -9999 -9999
-9999 -9999 -9999 -9999 -9999 -9999 -9999 -9999 -9999 -9999 -9999 -9999 -9999 -9999 -9999 -9999 -9999 -9999 -9999 -9999 -9999 -9999 -9999 -9999 -9999 -9999 -9999 -9999 -9999 -9999 -9999 -9999 -9999 -9999 -9999 -9999 -9999 -9999 -9999 333.3671 332.9284 332.0695 330.8087 329.3719 327.3907 325.4567 323.2093 321.0432 319.3486 317.8252 316.8464 316.0417 315.4717 315.0826 314.627 314.2564 313.7958 313.0757 312.2639 311.341 310.6259 309.7095 308.8532 309.064 310.4561 312.1644 314.3566 316.7983 319.0043 320.9036 321.8886 322.5703 323.025 323.3683 323.7098 323.9272 324.0604 324.0746 324.023 323.9462 323.895 323.8563 323.8398 323.8508 323.9059 323.9917 324.1276 324.3122 324.5212 324.8052 325.0592 325.2916 325.4507 325.6098 325.8878 326.2476 326.7456 327.3222 327.888 328.5302 329.0031 329.3937 329.6293 329.7387 329.7984 329.9119 330.2831 331.205 332.388 333.7823 334.7577 335.4744 335.8089 335.9045 335.8745 335.8102 335.7338 335.6426 -9999 -9999 -9999 -9999 -9999 -9999 -9999 -9999 -9999 -9999 -9999 -9999 -9999 -9999 -9999 -9999 -9999 -9999 -9999 -9999 -9999 -9999 -9999 -9999 -9999 -9999 -9999 -9999 -9999 -9999 -9999 -9999 -9999 -9999 -9999 -9999 -9999 -9999 -9999 -9999 -9999 -9999
-9999 -9999 -9999 -9999 -9999 -9999 -9999 -9999 -9999 -9999 -9999 -9999 -9999 -9999 -9999 -9999 -9999 -9999 -9999 -9999 -9999 -9999 -9999 -9999 -9999 -9999 -9999 -9999 -9999 -9999 -9999 -9999 -9999 -9999 -9999 -9999 -9999 -9999 -9999 334.0255 333.7052 332.9486 331.7319 330.2794 328.2192 326.2105 323.9034 321.6846 319.9541 318.4355 317.4915 316.7059 316.1067 315.6574 315.3136 315.2611 315.1028 314.496 313.5963 312.3501 311.3137 310.2867 309.4695 309.4987 310.8238 312.7308 315.121 317.5229 319.5008 321.1407 321.9995 322.6277 323.0934 323.4591 323.8036 324.0061 324.1184 324.1209 324.0638 323.9849 323.9351 323.8993 323.8929 323.9121 323.9702 324.055 324.1866 324.3591 324.5516 324.8093 325.0351 325.2339 325.3445 325.4463 325.7168 326.1443 326.7591 327.4625 328.1322 328.8619 329.3626 329.7271 329.9047 329.9766 330.0451 330.2085 330.6387 331.5 332.5558 333.8357 334.7578 335.4599 335.8066 335.9182 335.9055 335.8535 335.7849 335.6936 -9999 -9999 -9999 -9999 -9999 -9999 -9999 -9999 -9999 -9999 -9999 -9999 -9999 -9999 -9999 -9999 -9999 -9999 -9999 -9999 -9999 -9999 -9999 -9999 -9999 -9999 -9999 -9999 -9999 -9999 -9999 -9999 -9999 -9999 -9999 -9999 -9999 -9999 -9999 -9999 -9999 -9999
-9999 -9999 -9999 -9999 -9999 -9999 -9999 -9999 -9999 -9999 -9999 -9999 -9999 -9999 -9999 -9999 -9999 -9999 -9999 -9999 -9999 -9999 -9999 -9999 -9999 -9999 -9999 -9999 -9999 -9999 -9999 -9999 -9999 -9999 -9999 -9999 -9999 -9999 -9999 334.5492 334.3654 333.7524 332.615 331.1502 328.9893 326.8727 324.4643 322.1446 320.3262 318.8015 317.9114 317.1706 316.5668 316.1193 315.8424 315.8369 315.7464 315.2687 314.3852 312.9068 311.5291 310.3414 309.8979 309.9738 311.3561 313.4273 315.7913 317.9487 319.6495 321.0956 321.9159 322.5614 323.0572 323.4402 323.7841 323.9732 324.0741 324.0805 324.0361 323.9722 323.9352 323.915 323.9222 323.9539 324.0211 324.1094 324.2346 324.3916 324.5631 324.7852 324.974 325.1421 325.2321 325.3102 325.6339 326.1811 326.9242 327.7315 328.4731 329.2588 329.7777 330.1097 330.2462 330.3158 330.4394 330.6817 331.1737 331.9758 332.899 334.027 334.8574 335.4922 335.8093 335.9223 335.9266 335.8835 335.8129 335.711 -9999 -9999 -9999 -9999 -9999 -9999 -9999 -9999 -9999 -9999 -9999 -9999 -9999 -9999 -9999 -9999 -9999 -9999 -9999 -9999 -9999 -9999 -9999 -9999 -9999 -9999 -9999 -9999 -9999 -9999 -9999 -9999 -9999 -9999 -9999 -9999 -9999 -9999 -9999 -9999 -9999 -9999
-9999 -9999 -9999 -9999 -9999 -9999 -9999 -9999 -9999 -9999 -9999 -9999 -9999 -9999 -9999 -9999 -9999 -9999 -9999 -9999 -9999 -9999 -9999 -9999 -9999 -9999 -9999 -9999 -9999 -9999 -9999 -9999 -9999 -9999 -9999 -9999 -9999 -9999 -9999 335.0386 335.0116 334.6133 333.6458 332.1882 329.8696 327.6047 325.0495 322.5714 320.6026 319.0836 318.2739 317.6158 317.0653 316.6717 316.399 316.2877 316.119 315.6799 314.8842 313.4007 311.962 310.7787 310.5778 310.7708 312.2495 314.3161 316.413 318.1939 319.6166 320.9012 321.7087 322.393 322.9241 323.3223 323.6677 323.8477 323.947 323.9729 323.9538 323.9208 323.9087 323.913 323.942 323.9927 324.0781 324.1746 324.2978 324.4411 324.5924 324.7809 324.9366 325.0782 325.1722 325.2936 325.7567 326.4444 327.2963 328.1629 328.9246 329.702 330.1921 330.4965 330.6393 330.7479 330.9518 331.2658 331.7895 332.5239 333.3192 334.2805 334.9928 335.5292 335.7999 335.9091 335.9303 335.8953 335.821 335.7083 335.5795 -9999 -9999 -9999 -9999 -9999 -9999 -9999 -9999 -9999 -9999 -9999 -9999 -9999 -9999 -9999 -9999 -9999 -9999 -9999 -9999 -9999 -9999 -9999 -9999 -9999 -9999 -9999 -9999 -9999 -9999 -9999 -9999 -9999 -9999 -9999 -9999 -9999 -9999 -9999 -9999 -9999
-9999 -9999 -9999 -9999 -9999 -9999 -9999 -9999 -9999 -9999 -9999 -9999 -9999 -9999 -9999 -9999 -9999 -9999 -9999 -9999 -9999 -9999 -9999 -9999 -9999 -9999 -9999 -9999 -9999 -9999 -9999 -9999 -9999 -9999 -9999 -9999 -9999 -9999 -9999 335.4087 335.4939 335.3164 334.6651 333.3262 330.8369 328.4107 325.688 323.0431 320.9562 319.3598 318.5721 318.0034 317.5637 317.2127 316.8619 316.6145 316.3089 315.8223 315.1078 313.8949 312.7855 311.8643 311.4885 311.7549 313.2561 315.0145 316.7258 318.1956 319.4139 320.6115 321.4291 322.1381 322.6901 323.101 323.4515 323.638 323.7531 323.8047 323.8249 323.8364 323.8535 323.8885 323.9474 324.0244 324.1399 324.2548 324.3906 324.5363 324.6834 324.8675 325.0257 325.1972 325.3862 325.6526 326.2719 327.019 327.8945 328.7337 329.4237 330.0874 330.5052 330.8086 331.0138 331.1938 331.4773 331.8324 332.3491 333.0046 333.6812 334.4825 335.0756 335.523 335.7621 335.8716 335.9057 335.8783 335.8071 335.6945 335.5624 -9999 -9999 -9999 -9999 -9999 -9999 -9999 -9999 -9999 -9999 -9999 -9999 -9999 -9999 -9999 -9999 -9999 -9999 -9999 -9999 -9999 -9999 -9999 -9999 -9999 -9999 -9999 -9999 -9999 -9999 -9999 -9999 -9999 -9999 -9999 -9999 -9999 -9999 -9999 -9999 -9999
-9999 -9999 -9999 -9999 -9999 -9999 -9999 -9999 -9999 -9999 -9999 -9999 -9999 -9999 -9999 -9999 -9999 -9999 -9999 -9999 -9999 -9999 -9999 -9999 -9999 -9999 -9999 -9999 -9999 -9999 -9999 -9999 -9999 -9999 -9999 -9999 -9999 -9999 -9999 335.648 335.7861 335.7331 335.3926 334.335 331.8341 329.2153 326.297 323.518 321.3484 319.6444 318.8532 318.3591 318.0015 317.6771 317.272 316.9063 316.4634 315.9173 315.2772 314.3546 313.555 312.8479 312.4284 312.7232 314.0585 315.4113 316.7904 318.0626 319.1749 320.3422 321.1529 321.8571 322.4132 322.8299 323.1894 323.3946 323.5439 323.6297 323.6873 323.7403 323.7872 323.8532 323.9448 324.0525 324.2053 324.3488 324.5132 324.687 324.856 325.071 325.2744 325.5288 325.8619 326.2886 326.9993 327.7486 328.5898 329.3425 329.9058 330.4095 330.7648 331.0772 331.3387 331.5825 331.9211 332.2893 332.7772 333.3524 333.9237 334.5876 335.0799 335.4716 335.7006 335.8141 335.8584 335.8409 335.7807 335.6794 335.5562 -9999 -9999 -9999 -9999 -9999 -9999 -9999 -9999 -9999 -9999 -9999 -9999 -9999 -9999 -9999 -9999 -9999 -9999 -9999 -9999 -9999 -9999 -9999 -9999 -9999 -9999 -9999 -9999 -9999 -9999 -9999 -9999 -9999 -9999 -9999 -9999 -9999 -9999 -9999 -9999 -9999
-9999 -9999 -9999 -9999 -9999 -9999 -9999 -9999 -9999 -9999 -9999 -9999 -9999 -9999 -9999 -9999 -9999 -9999 -9999 -9999 -9999 -9999 -9999 -9999 -9999 -9999 -9999 -9999 -9999 -9999 -9999 -9999 -9999 -9999 -9999 -9999 -9999 -9999 -9999 335.8174 336.0172 336.0534 335.8648 335.0464 332.6516 329.907 326.8786 324.0647 321.8312 320.0287 319.2423 318.7706 318.4366 318.1368 317.7378 317.2942 316.7222 316.123 315.5638 314.8468 314.132 313.3838 313.2019 313.8516 314.8266 315.7216 316.7648 317.8584 318.8896 320.0255 320.8075 321.4936 322.0449 322.4561 322.8243 323.0667 323.2756 323.4172 323.5191 323.6198 323.7051 323.811 323.9426 324.0893 324.2936 324.4885 324.7133 324.9571 325.1951 325.5013 325.8104 326.2076 326.6981 327.2427 327.9928 328.7 329.4576 330.0723 330.4761 330.8293 331.1083 331.4033 331.6987 331.9849 332.3514 332.7079 333.1423 333.6235 334.0897 334.6263 335.0341 335.3804 335.5992 335.7182 335.777 335.7766 335.7387 335.6585 335.5551 -9999 -9999 -9999 -9999 -9999 -9999 -9999 -9999 -9999 -9999 -9999 -9999 -9999 -9999 -9999 -9999 -9999 -9999 -9999 -9999 -9999 -9999 -9999 -9999 -9999 -9999 -9999 -9999 -9999 -9999 -9999 -9999 -9999 -9999 -9999 -9999 -9999 -9999 -9999 -9999 -9999
